0.012000000000000004 -0.0020000000000000018 -0.0875
0.012000000000000004 -0.0020000000000000018 0.10967391304347826
0.012000000000000004 0.0 -0.0875
0.012000000000000004 0.0 0.10967391304347826
0.012000000000000004 0.0020000000000000018 -0.0875
0.012000000000000004 0.0020000000000000018 0.10967391304347826
0.012000000000000004 0.0040000000000000036 -0.0875
0.012000000000000004 0.0040000000000000036 0.10967391304347826
0.012000000000000004 0.006000000000000005 -0.0875
0.012000000000000004 0.006000000000000005 0.10967391304347826
0.012000000000000004 0.008 -0.0875
0.012000000000000004 0.008 0.10967391304347826
0.012000000000000004 0.010000000000000002 -0.0875
0.012000000000000004 0.010000000000000002 0.10967391304347826
0.012000000000000004 0.012000000000000004 -0.0875
0.012000000000000004 0.012000000000000004 0.10967391304347826
0.012000000000000004 0.013999999999999999 -0.0875
0.012000000000000004 0.013999999999999999 0.10967391304347826
0.012000000000000004 0.013999999999999999 0.1083695652173913
0.012000000000000004 0.016 -0.0875
0.012000000000000004 0.016 0.10967391304347826
0.012000000000000004 0.016 0.10706521739130434
0.012000000000000004 0.018000000000000002 -0.0875
0.012000000000000004 0.018000000000000002 0.10967391304347826
0.012000000000000004 0.018000000000000002 0.10576086956521738
0.012000000000000004 0.020000000000000004 -0.0875
0.012000000000000004 0.020000000000000004 0.10967391304347826
0.012000000000000004 0.020000000000000004 0.10445652173913042
0.012000000000000004 0.022000000000000006 -0.0875
0.012000000000000004 0.022000000000000006 0.10967391304347826
0.012000000000000004 0.022000000000000006 0.10315217391304346
0.012000000000000004 0.024000000000000007 -0.0875
0.012000000000000004 0.024000000000000007 0.10967391304347826
0.012000000000000004 0.024000000000000007 0.10184782608695651
0.012000000000000004 0.02600000000000001 -0.0875
0.012000000000000004 0.02600000000000001 0.10967391304347826
0.012000000000000004 0.02600000000000001 0.10054347826086955
0.012000000000000004 0.027999999999999997 -0.0875
0.012000000000000004 0.027999999999999997 0.10967391304347826
0.012000000000000004 0.027999999999999997 0.09923913043478261
0.012000000000000004 0.03 -0.0875
0.012000000000000004 0.03 0.10967391304347826
0.012000000000000004 0.03 0.09793478260869565
0.012000000000000004 0.032 -0.0875
0.012000000000000004 0.032 0.10967391304347826
0.012000000000000004 0.032 0.09663043478260869
0.012000000000000004 0.034 -0.0875
0.012000000000000004 0.034 0.10967391304347826
0.012000000000000004 0.034 0.09532608695652173
0.012000000000000004 0.036000000000000004 -0.0875
0.012000000000000004 0.036000000000000004 0.10967391304347826
0.012000000000000004 0.036000000000000004 0.09402173913043477
0.012000000000000004 0.038000000000000006 -0.0875
0.012000000000000004 0.038000000000000006 0.10967391304347826
0.012000000000000004 0.038000000000000006 0.09271739130434782
0.012000000000000004 0.04000000000000001 -0.0875
0.012000000000000004 0.04000000000000001 0.10967391304347826
0.012000000000000004 0.04000000000000001 0.09141304347826086
0.012000000000000004 0.041999999999999996 -0.0875
0.012000000000000004 0.041999999999999996 0.10967391304347826
0.012000000000000004 0.041999999999999996 0.09010869565217391
0.012000000000000004 0.044 -0.0875
0.012000000000000004 0.044 0.10967391304347826
0.012000000000000004 0.044 0.08880434782608695
0.013999999999999999 -0.046 -0.0875
0.013999999999999999 -0.046 0.1083695652173913
0.013999999999999999 -0.046 0.0875
0.013999999999999999 -0.044 -0.0875
0.013999999999999999 -0.044 0.1083695652173913
0.013999999999999999 -0.044 0.08880434782608695
0.013999999999999999 -0.041999999999999996 -0.0875
0.013999999999999999 -0.041999999999999996 0.1083695652173913
0.013999999999999999 -0.041999999999999996 0.09010869565217391
0.013999999999999999 -0.04 -0.0875
0.013999999999999999 -0.04 0.1083695652173913
0.013999999999999999 -0.04 0.09141304347826086
0.013999999999999999 -0.038 -0.0875
0.013999999999999999 -0.038 0.1083695652173913
0.013999999999999999 -0.038 0.09271739130434782
0.013999999999999999 -0.036 -0.0875
0.013999999999999999 -0.036 0.1083695652173913
0.013999999999999999 -0.036 0.09402173913043478
0.013999999999999999 -0.034 -0.0875
0.013999999999999999 -0.034 0.1083695652173913
0.013999999999999999 -0.034 0.09532608695652173
0.013999999999999999 -0.032 -0.0875
0.013999999999999999 -0.032 0.1083695652173913
0.013999999999999999 -0.032 0.09663043478260869
0.013999999999999999 -0.03 -0.0875
0.013999999999999999 -0.03 0.1083695652173913
0.013999999999999999 -0.03 0.09793478260869565
0.013999999999999999 -0.027999999999999997 -0.0875
0.013999999999999999 -0.027999999999999997 0.1083695652173913
0.013999999999999999 -0.027999999999999997 0.09923913043478261
0.013999999999999999 -0.026 -0.0875
0.013999999999999999 -0.026 0.1083695652173913
0.013999999999999999 -0.026 0.10054347826086957
0.013999999999999999 -0.024 -0.0875
0.013999999999999999 -0.024 0.1083695652173913
0.013999999999999999 -0.024 0.10184782608695651
0.013999999999999999 -0.022 -0.0875
0.013999999999999999 -0.022 0.1083695652173913
0.013999999999999999 -0.022 0.10315217391304347
0.013999999999999999 -0.019999999999999997 -0.0875
0.013999999999999999 -0.019999999999999997 0.1083695652173913
0.013999999999999999 -0.019999999999999997 0.10445652173913043
0.013999999999999999 -0.018 -0.0875
0.013999999999999999 -0.018 0.1083695652173913
0.013999999999999999 -0.018 0.10576086956521738
0.013999999999999999 -0.016 -0.0875
0.013999999999999999 -0.016 0.1083695652173913
0.013999999999999999 -0.016 0.10706521739130434
0.013999999999999999 -0.013999999999999999 -0.0875
0.013999999999999999 -0.013999999999999999 0.1083695652173913
0.013999999999999999 -0.011999999999999997 -0.0875
0.013999999999999999 -0.011999999999999997 0.1083695652173913
0.013999999999999999 -0.009999999999999995 -0.0875
0.013999999999999999 -0.009999999999999995 0.1083695652173913
0.013999999999999999 -0.008 -0.0875
0.013999999999999999 -0.008 0.1083695652173913
0.013999999999999999 -0.005999999999999998 -0.0875
0.013999999999999999 -0.005999999999999998 0.1083695652173913
0.013999999999999999 -0.003999999999999997 -0.0875
0.013999999999999999 -0.003999999999999997 0.1083695652173913
0.013999999999999999 -0.0020000000000000018 -0.0875
0.013999999999999999 -0.0020000000000000018 0.1083695652173913
0.013999999999999999 0.0 -0.0875
0.013999999999999999 0.0 0.1083695652173913
0.013999999999999999 0.0020000000000000018 -0.0875
0.013999999999999999 0.0020000000000000018 0.1083695652173913
0.013999999999999999 0.0040000000000000036 -0.0875
0.013999999999999999 0.0040000000000000036 0.1083695652173913
0.013999999999999999 0.006000000000000005 -0.0875
0.013999999999999999 0.006000000000000005 0.1083695652173913
0.013999999999999999 0.008 -0.0875
0.013999999999999999 0.008 0.1083695652173913
0.013999999999999999 0.010000000000000002 -0.0875
0.013999999999999999 0.010000000000000002 0.1083695652173913
0.013999999999999999 0.012000000000000004 -0.0875
0.013999999999999999 0.012000000000000004 0.1083695652173913
0.013999999999999999 0.013999999999999999 -0.0875
0.013999999999999999 0.013999999999999999 0.1083695652173913
0.013999999999999999 0.016 -0.0875
0.013999999999999999 0.016 0.1083695652173913
0.013999999999999999 0.016 0.10706521739130434
0.013999999999999999 0.018000000000000002 -0.0875
0.013999999999999999 0.018000000000000002 0.1083695652173913
0.013999999999999999 0.018000000000000002 0.10576086956521738
0.013999999999999999 0.020000000000000004 -0.0875
0.013999999999999999 0.020000000000000004 0.1083695652173913
0.013999999999999999 0.020000000000000004 0.10445652173913042
0.013999999999999999 0.022000000000000006 -0.0875
0.013999999999999999 0.022000000000000006 0.1083695652173913
0.013999999999999999 0.022000000000000006 0.10315217391304346
0.013999999999999999 0.024000000000000007 -0.0875
0.013999999999999999 0.024000000000000007 0.1083695652173913
0.013999999999999999 0.024000000000000007 0.10184782608695651
0.013999999999999999 0.02600000000000001 -0.0875
0.013999999999999999 0.02600000000000001 0.1083695652173913
0.013999999999999999 0.02600000000000001 0.10054347826086955
0.013999999999999999 0.027999999999999997 -0.0875
0.013999999999999999 0.027999999999999997 0.1083695652173913
0.013999999999999999 0.027999999999999997 0.09923913043478261
0.013999999999999999 0.03 -0.0875
0.013999999999999999 0.03 0.1083695652173913
0.013999999999999999 0.03 0.09793478260869565
0.013999999999999999 0.032 -0.0875
0.013999999999999999 0.032 0.1083695652173913
0.013999999999999999 0.032 0.09663043478260869
0.013999999999999999 0.034 -0.0875
0.013999999999999999 0.034 0.1083695652173913
0.013999999999999999 0.034 0.09532608695652173
0.013999999999999999 0.036000000000000004 -0.0875
0.013999999999999999 0.036000000000000004 0.1083695652173913
0.013999999999999999 0.036000000000000004 0.09402173913043477
0.013999999999999999 0.038000000000000006 -0.0875
0.013999999999999999 0.038000000000000006 0.1083695652173913
0.013999999999999999 0.038000000000000006 0.09271739130434782
0.013999999999999999 0.04000000000000001 -0.0875
0.013999999999999999 0.04000000000000001 0.1083695652173913
0.013999999999999999 0.04000000000000001 0.09141304347826086
0.013999999999999999 0.041999999999999996 -0.0875
0.013999999999999999 0.041999999999999996 0.1083695652173913
0.013999999999999999 0.041999999999999996 0.09010869565217391
0.013999999999999999 0.044 -0.0875
0.013999999999999999 0.044 0.1083695652173913
0.013999999999999999 0.044 0.08880434782608695
0.016 -0.046 -0.0875
0.016 -0.046 0.10706521739130434
0.016 -0.046 0.0875
0.016 -0.044 -0.0875
0.016 -0.044 0.10706521739130434
0.016 -0.044 0.08880434782608695
0.016 -0.041999999999999996 -0.0875
0.016 -0.041999999999999996 0.10706521739130434
0.016 -0.041999999999999996 0.09010869565217391
0.016 -0.04 -0.0875
0.016 -0.04 0.10706521739130434
0.016 -0.04 0.09141304347826086
0.016 -0.038 -0.0875
0.016 -0.038 0.10706521739130434
0.016 -0.038 0.09271739130434782
0.016 -0.036 -0.0875
0.016 -0.036 0.10706521739130434
0.016 -0.036 0.09402173913043478
0.016 -0.034 -0.0875
0.016 -0.034 0.10706521739130434
0.016 -0.034 0.09532608695652173
0.016 -0.032 -0.0875
0.016 -0.032 0.10706521739130434
0.016 -0.032 0.09663043478260869
0.016 -0.03 -0.0875
0.016 -0.03 0.10706521739130434
0.016 -0.03 0.09793478260869565
0.016 -0.027999999999999997 -0.0875
0.016 -0.027999999999999997 0.10706521739130434
0.016 -0.027999999999999997 0.09923913043478261
0.016 -0.026 -0.0875
0.016 -0.026 0.10706521739130434
0.016 -0.026 0.10054347826086957
0.016 -0.024 -0.0875
0.016 -0.024 0.10706521739130434
0.016 -0.024 0.10184782608695651
0.016 -0.022 -0.0875
0.016 -0.022 0.10706521739130434
0.016 -0.022 0.10315217391304347
0.016 -0.019999999999999997 -0.0875
0.016 -0.019999999999999997 0.10706521739130434
0.016 -0.019999999999999997 0.10445652173913043
0.016 -0.018 -0.0875
0.016 -0.018 0.10706521739130434
0.016 -0.018 0.10576086956521738
0.016 -0.016 -0.0875
0.016 -0.016 0.10706521739130434
0.016 -0.013999999999999999 -0.0875
0.016 -0.013999999999999999 0.10706521739130434
0.016 -0.011999999999999997 -0.0875
0.016 -0.011999999999999997 0.10706521739130434
0.016 -0.009999999999999995 -0.0875
0.016 -0.009999999999999995 0.10706521739130434
0.016 -0.008 -0.0875
0.016 -0.008 0.10706521739130434
0.016 -0.005999999999999998 -0.0875
0.016 -0.005999999999999998 0.10706521739130434
0.016 -0.003999999999999997 -0.0875
0.016 -0.003999999999999997 0.10706521739130434
0.016 -0.0020000000000000018 -0.0875
0.016 -0.0020000000000000018 0.10706521739130434
0.016 0.0 -0.0875
0.016 0.0 0.10706521739130434
0.016 0.0020000000000000018 -0.0875
0.016 0.0020000000000000018 0.10706521739130434
0.016 0.0040000000000000036 -0.0875
0.016 0.0040000000000000036 0.10706521739130434
0.016 0.006000000000000005 -0.0875
0.016 0.006000000000000005 0.10706521739130434
0.016 0.008 -0.0875
0.016 0.008 0.10706521739130434
0.016 0.010000000000000002 -0.0875
0.016 0.010000000000000002 0.10706521739130434
0.016 0.012000000000000004 -0.0875
0.016 0.012000000000000004 0.10706521739130434
0.016 0.013999999999999999 -0.0875
0.016 0.013999999999999999 0.10706521739130434
0.016 0.016 -0.0875
0.016 0.016 0.10706521739130434
0.016 0.018000000000000002 -0.0875
0.016 0.018000000000000002 0.10706521739130434
0.016 0.018000000000000002 0.10576086956521738
0.016 0.020000000000000004 -0.0875
0.016 0.020000000000000004 0.10706521739130434
0.016 0.020000000000000004 0.10445652173913042
0.016 0.022000000000000006 -0.0875
0.016 0.022000000000000006 0.10706521739130434
0.016 0.022000000000000006 0.10315217391304346
0.016 0.024000000000000007 -0.0875
0.016 0.024000000000000007 0.10706521739130434
0.016 0.024000000000000007 0.10184782608695651
0.016 0.02600000000000001 -0.0875
0.016 0.02600000000000001 0.10706521739130434
0.016 0.02600000000000001 0.10054347826086955
0.016 0.027999999999999997 -0.0875
0.016 0.027999999999999997 0.10706521739130434
0.016 0.027999999999999997 0.09923913043478261
0.016 0.03 -0.0875
0.016 0.03 0.10706521739130434
0.016 0.03 0.09793478260869565
0.016 0.032 -0.0875
0.016 0.032 0.10706521739130434
0.016 0.032 0.09663043478260869
0.016 0.034 -0.0875
0.016 0.034 0.10706521739130434
0.016 0.034 0.09532608695652173
0.016 0.036000000000000004 -0.0875
0.016 0.036000000000000004 0.10706521739130434
0.016 0.036000000000000004 0.09402173913043477
0.016 0.038000000000000006 -0.0875
0.016 0.038000000000000006 0.10706521739130434
0.016 0.038000000000000006 0.09271739130434782
0.016 0.04000000000000001 -0.0875
0.016 0.04000000000000001 0.10706521739130434
0.016 0.04000000000000001 0.09141304347826086
0.016 0.041999999999999996 -0.0875
0.016 0.041999999999999996 0.10706521739130434
0.016 0.041999999999999996 0.09010869565217391
0.016 0.044 -0.0875
0.016 0.044 0.10706521739130434
0.016 0.044 0.08880434782608695
0.018000000000000002 -0.046 -0.0875
0.018000000000000002 -0.046 0.10576086956521738
0.018000000000000002 -0.046 0.0875
0.018000000000000002 -0.044 -0.0875
0.018000000000000002 -0.044 0.10576086956521738
0.018000000000000002 -0.044 0.08880434782608695
0.018000000000000002 -0.041999999999999996 -0.0875
0.018000000000000002 -0.041999999999999996 0.10576086956521738
0.018000000000000002 -0.041999999999999996 0.09010869565217391
0.018000000000000002 -0.04 -0.0875
0.018000000000000002 -0.04 0.10576086956521738
0.018000000000000002 -0.04 0.09141304347826086
0.018000000000000002 -0.038 -0.0875
0.018000000000000002 -0.038 0.10576086956521738
0.018000000000000002 -0.038 0.09271739130434782
0.018000000000000002 -0.036 -0.0875
0.018000000000000002 -0.036 0.10576086956521738
0.018000000000000002 -0.036 0.09402173913043478
0.018000000000000002 -0.034 -0.0875
0.018000000000000002 -0.034 0.10576086956521738
0.018000000000000002 -0.034 0.09532608695652173
0.018000000000000002 -0.032 -0.0875
0.018000000000000002 -0.032 0.10576086956521738
0.018000000000000002 -0.032 0.09663043478260869
0.018000000000000002 -0.03 -0.0875
0.018000000000000002 -0.03 0.10576086956521738
0.018000000000000002 -0.03 0.09793478260869565
0.018000000000000002 -0.027999999999999997 -0.0875
0.018000000000000002 -0.027999999999999997 0.10576086956521738
0.018000000000000002 -0.027999999999999997 0.09923913043478261
0.018000000000000002 -0.026 -0.0875
0.018000000000000002 -0.026 0.10576086956521738
0.018000000000000002 -0.026 0.10054347826086957
0.018000000000000002 -0.024 -0.0875
0.018000000000000002 -0.024 0.10576086956521738
0.018000000000000002 -0.024 0.10184782608695651
0.018000000000000002 -0.022 -0.0875
0.018000000000000002 -0.022 0.10576086956521738
0.018000000000000002 -0.022 0.10315217391304347
0.018000000000000002 -0.019999999999999997 -0.0875
0.018000000000000002 -0.019999999999999997 0.10576086956521738
0.018000000000000002 -0.019999999999999997 0.10445652173913043
0.018000000000000002 -0.018 -0.0875
0.018000000000000002 -0.018 0.10576086956521738
0.018000000000000002 -0.016 -0.0875
0.018000000000000002 -0.016 0.10576086956521738
0.018000000000000002 -0.013999999999999999 -0.0875
0.018000000000000002 -0.013999999999999999 0.10576086956521738
0.018000000000000002 -0.011999999999999997 -0.0875
0.018000000000000002 -0.011999999999999997 0.10576086956521738
0.018000000000000002 -0.009999999999999995 -0.0875
0.018000000000000002 -0.009999999999999995 0.10576086956521738
0.018000000000000002 -0.008 -0.0875
0.018000000000000002 -0.008 0.10576086956521738
0.018000000000000002 -0.005999999999999998 -0.0875
0.018000000000000002 -0.005999999999999998 0.10576086956521738
0.018000000000000002 -0.003999999999999997 -0.0875
0.018000000000000002 -0.003999999999999997 0.10576086956521738
0.018000000000000002 -0.0020000000000000018 -0.0875
0.018000000000000002 -0.0020000000000000018 0.10576086956521738
0.018000000000000002 0.0 -0.0875
0.018000000000000002 0.0 0.10576086956521738
0.018000000000000002 0.0020000000000000018 -0.0875
0.018000000000000002 0.0020000000000000018 0.10576086956521738
0.018000000000000002 0.0040000000000000036 -0.0875
0.018000000000000002 0.0040000000000000036 0.10576086956521738
0.018000000000000002 0.006000000000000005 -0.0875
0.018000000000000002 0.006000000000000005 0.10576086956521738
0.018000000000000002 0.008 -0.0875
0.018000000000000002 0.008 0.10576086956521738
0.018000000000000002 0.010000000000000002 -0.0875
0.018000000000000002 0.010000000000000002 0.10576086956521738
0.018000000000000002 0.012000000000000004 -0.0875
0.018000000000000002 0.012000000000000004 0.10576086956521738
0.018000000000000002 0.013999999999999999 -0.0875
0.018000000000000002 0.013999999999999999 0.10576086956521738
0.018000000000000002 0.016 -0.0875
0.018000000000000002 0.016 0.10576086956521738
0.018000000000000002 0.018000000000000002 -0.0875
0.018000000000000002 0.018000000000000002 0.10576086956521738
0.018000000000000002 0.020000000000000004 -0.0875
0.018000000000000002 0.020000000000000004 0.10576086956521738
0.018000000000000002 0.020000000000000004 0.10445652173913042
0.018000000000000002 0.022000000000000006 -0.0875
0.018000000000000002 0.022000000000000006 0.10576086956521738
0.018000000000000002 0.022000000000000006 0.10315217391304346
0.018000000000000002 0.024000000000000007 -0.0875
0.018000000000000002 0.024000000000000007 0.10576086956521738
0.018000000000000002 0.024000000000000007 0.10184782608695651
0.018000000000000002 0.02600000000000001 -0.0875
0.018000000000000002 0.02600000000000001 0.10576086956521738
0.018000000000000002 0.02600000000000001 0.10054347826086955
0.018000000000000002 0.027999999999999997 -0.0875
0.018000000000000002 0.027999999999999997 0.10576086956521738
0.018000000000000002 0.027999999999999997 0.09923913043478261
0.018000000000000002 0.03 -0.0875
0.018000000000000002 0.03 0.10576086956521738
0.018000000000000002 0.03 0.09793478260869565
0.018000000000000002 0.032 -0.0875
0.018000000000000002 0.032 0.10576086956521738
0.018000000000000002 0.032 0.09663043478260869
0.018000000000000002 0.034 -0.0875
0.018000000000000002 0.034 0.10576086956521738
0.018000000000000002 0.034 0.09532608695652173
0.018000000000000002 0.036000000000000004 -0.0875
0.018000000000000002 0.036000000000000004 0.10576086956521738
0.018000000000000002 0.036000000000000004 0.09402173913043477
0.018000000000000002 0.038000000000000006 -0.0875
0.018000000000000002 0.038000000000000006 0.10576086956521738
0.018000000000000002 0.038000000000000006 0.09271739130434782
0.018000000000000002 0.04000000000000001 -0.0875
0.018000000000000002 0.04000000000000001 0.10576086956521738
0.018000000000000002 0.04000000000000001 0.09141304347826086
0.018000000000000002 0.041999999999999996 -0.0875
0.018000000000000002 0.041999999999999996 0.10576086956521738
0.018000000000000002 0.041999999999999996 0.09010869565217391
0.018000000000000002 0.044 -0.0875
0.018000000000000002 0.044 0.10576086956521738
0.018000000000000002 0.044 0.08880434782608695
0.020000000000000004 -0.046 -0.0875
0.020000000000000004 -0.046 0.10445652173913042
0.020000000000000004 -0.046 0.0875
0.020000000000000004 -0.044 -0.0875
0.020000000000000004 -0.044 0.10445652173913042
0.020000000000000004 -0.044 0.08880434782608695
0.020000000000000004 -0.041999999999999996 -0.0875
0.020000000000000004 -0.041999999999999996 0.10445652173913042
0.020000000000000004 -0.041999999999999996 0.09010869565217391
0.020000000000000004 -0.04 -0.0875
0.020000000000000004 -0.04 0.10445652173913042
0.020000000000000004 -0.04 0.09141304347826086
0.020000000000000004 -0.038 -0.0875
0.020000000000000004 -0.038 0.10445652173913042
0.020000000000000004 -0.038 0.09271739130434782
0.020000000000000004 -0.036 -0.0875
0.020000000000000004 -0.036 0.10445652173913042
0.020000000000000004 -0.036 0.09402173913043478
0.020000000000000004 -0.034 -0.0875
0.020000000000000004 -0.034 0.10445652173913042
0.020000000000000004 -0.034 0.09532608695652173
0.020000000000000004 -0.032 -0.0875
0.020000000000000004 -0.032 0.10445652173913042
0.020000000000000004 -0.032 0.09663043478260869
0.020000000000000004 -0.03 -0.0875
0.020000000000000004 -0.03 0.10445652173913042
0.020000000000000004 -0.03 0.09793478260869565
0.020000000000000004 -0.027999999999999997 -0.0875
0.020000000000000004 -0.027999999999999997 0.10445652173913042
0.020000000000000004 -0.027999999999999997 0.09923913043478261
0.020000000000000004 -0.026 -0.0875
0.020000000000000004 -0.026 0.10445652173913042
0.020000000000000004 -0.026 0.10054347826086957
0.020000000000000004 -0.024 -0.0875
0.020000000000000004 -0.024 0.10445652173913042
0.020000000000000004 -0.024 0.10184782608695651
0.020000000000000004 -0.022 -0.0875
0.020000000000000004 -0.022 0.10445652173913042
0.020000000000000004 -0.022 0.10315217391304347
0.020000000000000004 -0.019999999999999997 -0.0875
0.020000000000000004 -0.019999999999999997 0.10445652173913042
0.020000000000000004 -0.018 -0.0875
0.020000000000000004 -0.018 0.10445652173913042
0.020000000000000004 -0.016 -0.0875
0.020000000000000004 -0.016 0.10445652173913042
0.020000000000000004 -0.013999999999999999 -0.0875
0.020000000000000004 -0.013999999999999999 0.10445652173913042
0.020000000000000004 -0.011999999999999997 -0.0875
0.020000000000000004 -0.011999999999999997 0.10445652173913042
0.020000000000000004 -0.009999999999999995 -0.0875
0.020000000000000004 -0.009999999999999995 0.10445652173913042
0.020000000000000004 -0.008 -0.0875
0.020000000000000004 -0.008 0.10445652173913042
0.020000000000000004 -0.005999999999999998 -0.0875
0.020000000000000004 -0.005999999999999998 0.10445652173913042
0.020000000000000004 -0.003999999999999997 -0.0875
0.020000000000000004 -0.003999999999999997 0.10445652173913042
0.020000000000000004 -0.0020000000000000018 -0.0875
0.020000000000000004 -0.0020000000000000018 0.10445652173913042
0.020000000000000004 0.0 -0.0875
0.020000000000000004 0.0 0.10445652173913042
0.020000000000000004 0.0020000000000000018 -0.0875
0.020000000000000004 0.0020000000000000018 0.10445652173913042
0.020000000000000004 0.0040000000000000036 -0.0875
0.020000000000000004 0.0040000000000000036 0.10445652173913042
0.020000000000000004 0.006000000000000005 -0.0875
0.020000000000000004 0.006000000000000005 0.10445652173913042
0.020000000000000004 0.008 -0.0875
0.020000000000000004 0.008 0.10445652173913042
0.020000000000000004 0.010000000000000002 -0.0875
0.020000000000000004 0.010000000000000002 0.10445652173913042
0.020000000000000004 0.012000000000000004 -0.0875
0.020000000000000004 0.012000000000000004 0.10445652173913042
0.020000000000000004 0.013999999999999999 -0.0875
0.020000000000000004 0.013999999999999999 0.10445652173913042
0.020000000000000004 0.016 -0.0875
0.020000000000000004 0.016 0.10445652173913042
0.020000000000000004 0.018000000000000002 -0.0875
0.020000000000000004 0.018000000000000002 0.10445652173913042
0.020000000000000004 0.020000000000000004 -0.0875
0.020000000000000004 0.020000000000000004 0.10445652173913042
0.020000000000000004 0.022000000000000006 -0.0875
0.020000000000000004 0.022000000000000006 0.10445652173913042
0.020000000000000004 0.022000000000000006 0.10315217391304346
0.020000000000000004 0.024000000000000007 -0.0875
0.020000000000000004 0.024000000000000007 0.10445652173913042
0.020000000000000004 0.024000000000000007 0.10184782608695651
0.020000000000000004 0.02600000000000001 -0.0875
0.020000000000000004 0.02600000000000001 0.10445652173913042
0.020000000000000004 0.02600000000000001 0.10054347826086955
0.020000000000000004 0.027999999999999997 -0.0875
0.020000000000000004 0.027999999999999997 0.10445652173913042
0.020000000000000004 0.027999999999999997 0.09923913043478261
0.020000000000000004 0.03 -0.0875
0.020000000000000004 0.03 0.10445652173913042
0.020000000000000004 0.03 0.09793478260869565
0.020000000000000004 0.032 -0.0875
0.020000000000000004 0.032 0.10445652173913042
0.020000000000000004 0.032 0.09663043478260869
0.020000000000000004 0.034 -0.0875
0.020000000000000004 0.034 0.10445652173913042
0.020000000000000004 0.034 0.09532608695652173
0.020000000000000004 0.036000000000000004 -0.0875
0.020000000000000004 0.036000000000000004 0.10445652173913042
0.020000000000000004 0.036000000000000004 0.09402173913043477
0.020000000000000004 0.038000000000000006 -0.0875
0.020000000000000004 0.038000000000000006 0.10445652173913042
0.020000000000000004 0.038000000000000006 0.09271739130434782
0.020000000000000004 0.04000000000000001 -0.0875
0.020000000000000004 0.04000000000000001 0.10445652173913042
0.020000000000000004 0.04000000000000001 0.09141304347826086
0.020000000000000004 0.041999999999999996 -0.0875
0.020000000000000004 0.041999999999999996 0.10445652173913042
0.020000000000000004 0.041999999999999996 0.09010869565217391
0.020000000000000004 0.044 -0.0875
0.020000000000000004 0.044 0.10445652173913042
0.020000000000000004 0.044 0.08880434782608695
0.022000000000000006 -0.046 -0.0875
0.022000000000000006 -0.046 0.10315217391304346
0.022000000000000006 -0.046 0.0875
0.022000000000000006 -0.044 -0.0875
0.022000000000000006 -0.044 0.10315217391304346
0.022000000000000006 -0.044 0.08880434782608695
0.022000000000000006 -0.041999999999999996 -0.0875
0.022000000000000006 -0.041999999999999996 0.10315217391304346
0.022000000000000006 -0.041999999999999996 0.09010869565217391
0.022000000000000006 -0.04 -0.0875
0.022000000000000006 -0.04 0.10315217391304346
0.022000000000000006 -0.04 0.09141304347826086
0.022000000000000006 -0.038 -0.0875
0.022000000000000006 -0.038 0.10315217391304346
0.022000000000000006 -0.038 0.09271739130434782
0.022000000000000006 -0.036 -0.0875
0.022000000000000006 -0.036 0.10315217391304346
0.022000000000000006 -0.036 0.09402173913043478
0.022000000000000006 -0.034 -0.0875
0.022000000000000006 -0.034 0.10315217391304346
0.022000000000000006 -0.034 0.09532608695652173
0.022000000000000006 -0.032 -0.0875
0.022000000000000006 -0.032 0.10315217391304346
0.022000000000000006 -0.032 0.09663043478260869
0.022000000000000006 -0.03 -0.0875
0.022000000000000006 -0.03 0.10315217391304346
0.022000000000000006 -0.03 0.09793478260869565
0.022000000000000006 -0.027999999999999997 -0.0875
0.022000000000000006 -0.027999999999999997 0.10315217391304346
0.022000000000000006 -0.027999999999999997 0.09923913043478261
0.022000000000000006 -0.026 -0.0875
0.022000000000000006 -0.026 0.10315217391304346
0.022000000000000006 -0.026 0.10054347826086957
0.022000000000000006 -0.024 -0.0875
0.022000000000000006 -0.024 0.10315217391304346
0.022000000000000006 -0.024 0.10184782608695651
0.022000000000000006 -0.022 -0.0875
0.022000000000000006 -0.022 0.10315217391304346
0.022000000000000006 -0.019999999999999997 -0.0875
0.022000000000000006 -0.019999999999999997 0.10315217391304346
0.022000000000000006 -0.018 -0.0875
0.022000000000000006 -0.018 0.10315217391304346
0.022000000000000006 -0.016 -0.0875
0.022000000000000006 -0.016 0.10315217391304346
0.022000000000000006 -0.013999999999999999 -0.0875
0.022000000000000006 -0.013999999999999999 0.10315217391304346
0.022000000000000006 -0.011999999999999997 -0.0875
0.022000000000000006 -0.011999999999999997 0.10315217391304346
0.022000000000000006 -0.009999999999999995 -0.0875
0.022000000000000006 -0.009999999999999995 0.10315217391304346
0.022000000000000006 -0.008 -0.0875
0.022000000000000006 -0.008 0.10315217391304346
0.022000000000000006 -0.005999999999999998 -0.0875
0.022000000000000006 -0.005999999999999998 0.10315217391304346
0.022000000000000006 -0.003999999999999997 -0.0875
0.022000000000000006 -0.003999999999999997 0.10315217391304346
0.022000000000000006 -0.0020000000000000018 -0.0875
0.022000000000000006 -0.0020000000000000018 0.10315217391304346
0.022000000000000006 0.0 -0.0875
0.022000000000000006 0.0 0.10315217391304346
0.022000000000000006 0.0020000000000000018 -0.0875
0.022000000000000006 0.0020000000000000018 0.10315217391304346
0.022000000000000006 0.0040000000000000036 -0.0875
0.022000000000000006 0.0040000000000000036 0.10315217391304346
0.022000000000000006 0.006000000000000005 -0.0875
0.022000000000000006 0.006000000000000005 0.10315217391304346
0.022000000000000006 0.008 -0.0875
0.022000000000000006 0.008 0.10315217391304346
0.022000000000000006 0.010000000000000002 -0.0875
0.022000000000000006 0.010000000000000002 0.10315217391304346
0.022000000000000006 0.012000000000000004 -0.0875
0.022000000000000006 0.012000000000000004 0.10315217391304346
0.022000000000000006 0.013999999999999999 -0.0875
0.022000000000000006 0.013999999999999999 0.10315217391304346
0.022000000000000006 0.016 -0.0875
0.022000000000000006 0.016 0.10315217391304346
0.022000000000000006 0.018000000000000002 -0.0875
0.022000000000000006 0.018000000000000002 0.10315217391304346
0.022000000000000006 0.020000000000000004 -0.0875
0.022000000000000006 0.020000000000000004 0.10315217391304346
0.022000000000000006 0.022000000000000006 -0.0875
0.022000000000000006 0.022000000000000006 0.10315217391304346
0.022000000000000006 0.024000000000000007 -0.0875
0.022000000000000006 0.024000000000000007 0.10315217391304346
0.022000000000000006 0.024000000000000007 0.10184782608695651
0.022000000000000006 0.02600000000000001 -0.0875
0.022000000000000006 0.02600000000000001 0.10315217391304346
0.022000000000000006 0.02600000000000001 0.10054347826086955
0.022000000000000006 0.027999999999999997 -0.0875
0.022000000000000006 0.027999999999999997 0.10315217391304346
0.022000000000000006 0.027999999999999997 0.09923913043478261
0.022000000000000006 0.03 -0.0875
0.022000000000000006 0.03 0.10315217391304346
0.022000000000000006 0.03 0.09793478260869565
0.022000000000000006 0.032 -0.0875
0.022000000000000006 0.032 0.10315217391304346
0.022000000000000006 0.032 0.09663043478260869
0.022000000000000006 0.034 -0.0875
0.022000000000000006 0.034 0.10315217391304346
0.022000000000000006 0.034 0.09532608695652173
0.022000000000000006 0.036000000000000004 -0.0875
0.022000000000000006 0.036000000000000004 0.10315217391304346
0.022000000000000006 0.036000000000000004 0.09402173913043477
0.022000000000000006 0.038000000000000006 -0.0875
0.022000000000000006 0.038000000000000006 0.10315217391304346
0.022000000000000006 0.038000000000000006 0.09271739130434782
0.022000000000000006 0.04000000000000001 -0.0875
0.022000000000000006 0.04000000000000001 0.10315217391304346
0.022000000000000006 0.04000000000000001 0.09141304347826086
0.022000000000000006 0.041999999999999996 -0.0875
0.022000000000000006 0.041999999999999996 0.10315217391304346
0.022000000000000006 0.041999999999999996 0.09010869565217391
0.022000000000000006 0.044 -0.0875
0.022000000000000006 0.044 0.10315217391304346
0.022000000000000006 0.044 0.08880434782608695
0.024000000000000007 -0.046 -0.0875
0.024000000000000007 -0.046 0.10184782608695651
0.024000000000000007 -0.046 0.0875
0.024000000000000007 -0.044 -0.0875
0.024000000000000007 -0.044 0.10184782608695651
0.024000000000000007 -0.044 0.08880434782608695
0.024000000000000007 -0.041999999999999996 -0.0875
0.024000000000000007 -0.041999999999999996 0.10184782608695651
0.024000000000000007 -0.041999999999999996 0.09010869565217391
0.024000000000000007 -0.04 -0.0875
0.024000000000000007 -0.04 0.10184782608695651
0.024000000000000007 -0.04 0.09141304347826086
0.024000000000000007 -0.038 -0.0875
0.024000000000000007 -0.038 0.10184782608695651
0.024000000000000007 -0.038 0.09271739130434782
0.024000000000000007 -0.036 -0.0875
0.024000000000000007 -0.036 0.10184782608695651
0.024000000000000007 -0.036 0.09402173913043478
0.024000000000000007 -0.034 -0.0875
0.024000000000000007 -0.034 0.10184782608695651
0.024000000000000007 -0.034 0.09532608695652173
0.024000000000000007 -0.032 -0.0875
0.024000000000000007 -0.032 0.10184782608695651
0.024000000000000007 -0.032 0.09663043478260869
0.024000000000000007 -0.03 -0.0875
0.024000000000000007 -0.03 0.10184782608695651
0.024000000000000007 -0.03 0.09793478260869565
0.024000000000000007 -0.027999999999999997 -0.0875
0.024000000000000007 -0.027999999999999997 0.10184782608695651
0.024000000000000007 -0.027999999999999997 0.09923913043478261
0.024000000000000007 -0.026 -0.0875
0.024000000000000007 -0.026 0.10184782608695651
0.024000000000000007 -0.026 0.10054347826086957
0.024000000000000007 -0.024 -0.0875
0.024000000000000007 -0.024 0.10184782608695651
0.024000000000000007 -0.022 -0.0875
0.024000000000000007 -0.022 0.10184782608695651
0.024000000000000007 -0.019999999999999997 -0.0875
0.024000000000000007 -0.019999999999999997 0.10184782608695651
0.024000000000000007 -0.018 -0.0875
0.024000000000000007 -0.018 0.10184782608695651
0.024000000000000007 -0.016 -0.0875
0.024000000000000007 -0.016 0.10184782608695651
0.024000000000000007 -0.013999999999999999 -0.0875
0.024000000000000007 -0.013999999999999999 0.10184782608695651
0.024000000000000007 -0.011999999999999997 -0.0875
0.024000000000000007 -0.011999999999999997 0.10184782608695651
0.024000000000000007 -0.009999999999999995 -0.0875
0.024000000000000007 -0.009999999999999995 0.10184782608695651
0.024000000000000007 -0.008 -0.0875
0.024000000000000007 -0.008 0.10184782608695651
0.024000000000000007 -0.005999999999999998 -0.0875
0.024000000000000007 -0.005999999999999998 0.10184782608695651
0.024000000000000007 -0.003999999999999997 -0.0875
0.024000000000000007 -0.003999999999999997 0.10184782608695651
0.024000000000000007 -0.0020000000000000018 -0.0875
0.024000000000000007 -0.0020000000000000018 0.10184782608695651
0.024000000000000007 0.0 -0.0875
0.024000000000000007 0.0 0.10184782608695651
0.024000000000000007 0.0020000000000000018 -0.0875
0.024000000000000007 0.0020000000000000018 0.10184782608695651
0.024000000000000007 0.0040000000000000036 -0.0875
0.024000000000000007 0.0040000000000000036 0.10184782608695651
0.024000000000000007 0.006000000000000005 -0.0875
0.024000000000000007 0.006000000000000005 0.10184782608695651
0.024000000000000007 0.008 -0.0875
0.024000000000000007 0.008 0.10184782608695651
0.024000000000000007 0.010000000000000002 -0.0875
0.024000000000000007 0.010000000000000002 0.10184782608695651
0.024000000000000007 0.012000000000000004 -0.0875
0.024000000000000007 0.012000000000000004 0.10184782608695651
0.024000000000000007 0.013999999999999999 -0.0875
0.024000000000000007 0.013999999999999999 0.10184782608695651
0.024000000000000007 0.016 -0.0875
0.024000000000000007 0.016 0.10184782608695651
0.024000000000000007 0.018000000000000002 -0.0875
0.024000000000000007 0.018000000000000002 0.10184782608695651
0.024000000000000007 0.020000000000000004 -0.0875
0.024000000000000007 0.020000000000000004 0.10184782608695651
0.024000000000000007 0.022000000000000006 -0.0875
0.024000000000000007 0.022000000000000006 0.10184782608695651
0.024000000000000007 0.024000000000000007 -0.0875
0.024000000000000007 0.024000000000000007 0.10184782608695651
0.024000000000000007 0.02600000000000001 -0.0875
0.024000000000000007 0.02600000000000001 0.10184782608695651
0.024000000000000007 0.02600000000000001 0.10054347826086955
0.024000000000000007 0.027999999999999997 -0.0875
0.024000000000000007 0.027999999999999997 0.10184782608695651
0.024000000000000007 0.027999999999999997 0.09923913043478261
0.024000000000000007 0.03 -0.0875
0.024000000000000007 0.03 0.10184782608695651
0.024000000000000007 0.03 0.09793478260869565
0.024000000000000007 0.032 -0.0875
0.024000000000000007 0.032 0.10184782608695651
0.024000000000000007 0.032 0.09663043478260869
0.024000000000000007 0.034 -0.0875
0.024000000000000007 0.034 0.10184782608695651
0.024000000000000007 0.034 0.09532608695652173
0.024000000000000007 0.036000000000000004 -0.0875
0.024000000000000007 0.036000000000000004 0.10184782608695651
0.024000000000000007 0.036000000000000004 0.09402173913043477
0.024000000000000007 0.038000000000000006 -0.0875
0.024000000000000007 0.038000000000000006 0.10184782608695651
0.024000000000000007 0.038000000000000006 0.09271739130434782
0.024000000000000007 0.04000000000000001 -0.0875
0.024000000000000007 0.04000000000000001 0.10184782608695651
0.024000000000000007 0.04000000000000001 0.09141304347826086
0.024000000000000007 0.041999999999999996 -0.0875
0.024000000000000007 0.041999999999999996 0.10184782608695651
0.024000000000000007 0.041999999999999996 0.09010869565217391
0.024000000000000007 0.044 -0.0875
0.024000000000000007 0.044 0.10184782608695651
0.024000000000000007 0.044 0.08880434782608695
0.02600000000000001 -0.046 -0.0875
0.02600000000000001 -0.046 0.10054347826086955
0.02600000000000001 -0.046 0.0875
0.02600000000000001 -0.044 -0.0875
0.02600000000000001 -0.044 0.10054347826086955
0.02600000000000001 -0.044 0.08880434782608695
0.02600000000000001 -0.041999999999999996 -0.0875
0.02600000000000001 -0.041999999999999996 0.10054347826086955
0.02600000000000001 -0.041999999999999996 0.09010869565217391
0.02600000000000001 -0.04 -0.0875
0.02600000000000001 -0.04 0.10054347826086955
0.02600000000000001 -0.04 0.09141304347826086
0.02600000000000001 -0.038 -0.0875
0.02600000000000001 -0.038 0.10054347826086955
0.02600000000000001 -0.038 0.09271739130434782
0.02600000000000001 -0.036 -0.0875
0.02600000000000001 -0.036 0.10054347826086955
0.02600000000000001 -0.036 0.09402173913043478
0.02600000000000001 -0.034 -0.0875
0.02600000000000001 -0.034 0.10054347826086955
0.02600000000000001 -0.034 0.09532608695652173
0.02600000000000001 -0.032 -0.0875
0.02600000000000001 -0.032 0.10054347826086955
0.02600000000000001 -0.032 0.09663043478260869
0.02600000000000001 -0.03 -0.0875
0.02600000000000001 -0.03 0.10054347826086955
0.02600000000000001 -0.03 0.09793478260869565
0.02600000000000001 -0.027999999999999997 -0.0875
0.02600000000000001 -0.027999999999999997 0.10054347826086955
0.02600000000000001 -0.027999999999999997 0.09923913043478261
0.02600000000000001 -0.026 -0.0875
0.02600000000000001 -0.026 0.10054347826086955
0.02600000000000001 -0.024 -0.0875
0.02600000000000001 -0.024 0.10054347826086955
0.02600000000000001 -0.022 -0.0875
0.02600000000000001 -0.022 0.10054347826086955
0.02600000000000001 -0.019999999999999997 -0.0875
0.02600000000000001 -0.019999999999999997 0.10054347826086955
0.02600000000000001 -0.018 -0.0875
0.02600000000000001 -0.018 0.10054347826086955
0.02600000000000001 -0.016 -0.0875
0.02600000000000001 -0.016 0.10054347826086955
0.02600000000000001 -0.013999999999999999 -0.0875
0.02600000000000001 -0.013999999999999999 0.10054347826086955
0.02600000000000001 -0.011999999999999997 -0.0875
0.02600000000000001 -0.011999999999999997 0.10054347826086955
0.02600000000000001 -0.009999999999999995 -0.0875
0.02600000000000001 -0.009999999999999995 0.10054347826086955
0.02600000000000001 -0.008 -0.0875
0.02600000000000001 -0.008 0.10054347826086955
0.02600000000000001 -0.005999999999999998 -0.0875
0.02600000000000001 -0.005999999999999998 0.10054347826086955
0.02600000000000001 -0.003999999999999997 -0.0875
0.02600000000000001 -0.003999999999999997 0.10054347826086955
0.02600000000000001 -0.0020000000000000018 -0.0875
0.02600000000000001 -0.0020000000000000018 0.10054347826086955
0.02600000000000001 0.0 -0.0875
0.02600000000000001 0.0 0.10054347826086955
0.02600000000000001 0.0020000000000000018 -0.0875
0.02600000000000001 0.0020000000000000018 0.10054347826086955
0.02600000000000001 0.0040000000000000036 -0.0875
0.02600000000000001 0.0040000000000000036 0.10054347826086955
0.02600000000000001 0.006000000000000005 -0.0875
0.02600000000000001 0.006000000000000005 0.10054347826086955
0.02600000000000001 0.008 -0.0875
0.02600000000000001 0.008 0.10054347826086955
0.02600000000000001 0.010000000000000002 -0.0875
0.02600000000000001 0.010000000000000002 0.10054347826086955
0.02600000000000001 0.012000000000000004 -0.0875
0.02600000000000001 0.012000000000000004 0.10054347826086955
0.02600000000000001 0.013999999999999999 -0.0875
0.02600000000000001 0.013999999999999999 0.10054347826086955
0.02600000000000001 0.016 -0.0875
0.02600000000000001 0.016 0.10054347826086955
0.02600000000000001 0.018000000000000002 -0.0875
0.02600000000000001 0.018000000000000002 0.10054347826086955
0.02600000000000001 0.020000000000000004 -0.0875
0.02600000000000001 0.020000000000000004 0.10054347826086955
0.02600000000000001 0.022000000000000006 -0.0875
0.02600000000000001 0.022000000000000006 0.10054347826086955
0.02600000000000001 0.024000000000000007 -0.0875
0.02600000000000001 0.024000000000000007 0.10054347826086955
0.02600000000000001 0.02600000000000001 -0.0875
0.02600000000000001 0.02600000000000001 0.10054347826086955
0.02600000000000001 0.027999999999999997 -0.0875
0.02600000000000001 0.027999999999999997 0.10054347826086955
0.02600000000000001 0.027999999999999997 0.09923913043478261
0.02600000000000001 0.03 -0.0875
0.02600000000000001 0.03 0.10054347826086955
0.02600000000000001 0.03 0.09793478260869565
0.02600000000000001 0.032 -0.0875
0.02600000000000001 0.032 0.10054347826086955
0.02600000000000001 0.032 0.09663043478260869
0.02600000000000001 0.034 -0.0875
0.02600000000000001 0.034 0.10054347826086955
0.02600000000000001 0.034 0.09532608695652173
0.02600000000000001 0.036000000000000004 -0.0875
0.02600000000000001 0.036000000000000004 0.10054347826086955
0.02600000000000001 0.036000000000000004 0.09402173913043477
0.02600000000000001 0.038000000000000006 -0.0875
0.02600000000000001 0.038000000000000006 0.10054347826086955
0.02600000000000001 0.038000000000000006 0.09271739130434782
0.02600000000000001 0.04000000000000001 -0.0875
0.02600000000000001 0.04000000000000001 0.10054347826086955
0.02600000000000001 0.04000000000000001 0.09141304347826086
0.02600000000000001 0.041999999999999996 -0.0875
0.02600000000000001 0.041999999999999996 0.10054347826086955
0.02600000000000001 0.041999999999999996 0.09010869565217391
0.02600000000000001 0.044 -0.0875
0.02600000000000001 0.044 0.10054347826086955
0.02600000000000001 0.044 0.08880434782608695
0.027999999999999997 -0.046 -0.0875
0.027999999999999997 -0.046 0.09923913043478261
0.027999999999999997 -0.046 0.0875
0.027999999999999997 -0.044 -0.0875
0.027999999999999997 -0.044 0.09923913043478261
0.027999999999999997 -0.044 0.08880434782608695
0.027999999999999997 -0.041999999999999996 -0.0875
0.027999999999999997 -0.041999999999999996 0.09923913043478261
0.027999999999999997 -0.041999999999999996 0.09010869565217391
0.027999999999999997 -0.04 -0.0875
0.027999999999999997 -0.04 0.09923913043478261
0.027999999999999997 -0.04 0.09141304347826086
0.027999999999999997 -0.038 -0.0875
0.027999999999999997 -0.038 0.09923913043478261
0.027999999999999997 -0.038 0.09271739130434782
0.027999999999999997 -0.036 -0.0875
0.027999999999999997 -0.036 0.09923913043478261
0.027999999999999997 -0.036 0.09402173913043478
0.027999999999999997 -0.034 -0.0875
0.027999999999999997 -0.034 0.09923913043478261
0.027999999999999997 -0.034 0.09532608695652173
0.027999999999999997 -0.032 -0.0875
0.027999999999999997 -0.032 0.09923913043478261
0.027999999999999997 -0.032 0.09663043478260869
0.027999999999999997 -0.03 -0.0875
0.027999999999999997 -0.03 0.09923913043478261
0.027999999999999997 -0.03 0.09793478260869565
0.027999999999999997 -0.027999999999999997 -0.0875
0.027999999999999997 -0.027999999999999997 0.09923913043478261
0.027999999999999997 -0.026 -0.0875
0.027999999999999997 -0.026 0.09923913043478261
0.027999999999999997 -0.024 -0.0875
0.027999999999999997 -0.024 0.09923913043478261
0.027999999999999997 -0.022 -0.0875
0.027999999999999997 -0.022 0.09923913043478261
0.027999999999999997 -0.019999999999999997 -0.0875
0.027999999999999997 -0.019999999999999997 0.09923913043478261
0.027999999999999997 -0.018 -0.0875
0.027999999999999997 -0.018 0.09923913043478261
0.027999999999999997 -0.016 -0.0875
0.027999999999999997 -0.016 0.09923913043478261
0.027999999999999997 -0.013999999999999999 -0.0875
0.027999999999999997 -0.013999999999999999 0.09923913043478261
0.027999999999999997 -0.011999999999999997 -0.0875
0.027999999999999997 -0.011999999999999997 0.09923913043478261
0.027999999999999997 -0.009999999999999995 -0.0875
0.027999999999999997 -0.009999999999999995 0.09923913043478261
0.027999999999999997 -0.008 -0.0875
0.027999999999999997 -0.008 0.09923913043478261
0.027999999999999997 -0.005999999999999998 -0.0875
0.027999999999999997 -0.005999999999999998 0.09923913043478261
0.027999999999999997 -0.003999999999999997 -0.0875
0.027999999999999997 -0.003999999999999997 0.09923913043478261
0.027999999999999997 -0.0020000000000000018 -0.0875
0.027999999999999997 -0.0020000000000000018 0.09923913043478261
0.027999999999999997 0.0 -0.0875
0.027999999999999997 0.0 0.09923913043478261
0.027999999999999997 0.0020000000000000018 -0.0875
0.027999999999999997 0.0020000000000000018 0.09923913043478261
0.027999999999999997 0.0040000000000000036 -0.0875
0.027999999999999997 0.0040000000000000036 0.09923913043478261
0.027999999999999997 0.006000000000000005 -0.0875
0.027999999999999997 0.006000000000000005 0.09923913043478261
0.027999999999999997 0.008 -0.0875
0.027999999999999997 0.008 0.09923913043478261
0.027999999999999997 0.010000000000000002 -0.0875
0.027999999999999997 0.010000000000000002 0.09923913043478261
0.027999999999999997 0.012000000000000004 -0.0875
0.027999999999999997 0.012000000000000004 0.09923913043478261
0.027999999999999997 0.013999999999999999 -0.0875
0.027999999999999997 0.013999999999999999 0.09923913043478261
0.027999999999999997 0.016 -0.0875
0.027999999999999997 0.016 0.09923913043478261
0.027999999999999997 0.018000000000000002 -0.0875
0.027999999999999997 0.018000000000000002 0.09923913043478261
0.027999999999999997 0.020000000000000004 -0.0875
0.027999999999999997 0.020000000000000004 0.09923913043478261
0.027999999999999997 0.022000000000000006 -0.0875
0.027999999999999997 0.022000000000000006 0.09923913043478261
0.027999999999999997 0.024000000000000007 -0.0875
0.027999999999999997 0.024000000000000007 0.09923913043478261
0.027999999999999997 0.02600000000000001 -0.0875
0.027999999999999997 0.02600000000000001 0.09923913043478261
0.027999999999999997 0.027999999999999997 -0.0875
0.027999999999999997 0.027999999999999997 0.09923913043478261
0.027999999999999997 0.03 -0.0875
0.027999999999999997 0.03 0.09923913043478261
0.027999999999999997 0.03 0.09793478260869565
0.027999999999999997 0.032 -0.0875
0.027999999999999997 0.032 0.09923913043478261
0.027999999999999997 0.032 0.09663043478260869
0.027999999999999997 0.034 -0.0875
0.027999999999999997 0.034 0.09923913043478261
0.027999999999999997 0.034 0.09532608695652173
0.027999999999999997 0.036000000000000004 -0.0875
0.027999999999999997 0.036000000000000004 0.09923913043478261
0.027999999999999997 0.036000000000000004 0.09402173913043477
0.027999999999999997 0.038000000000000006 -0.0875
0.027999999999999997 0.038000000000000006 0.09923913043478261
0.027999999999999997 0.038000000000000006 0.09271739130434782
0.027999999999999997 0.04000000000000001 -0.0875
0.027999999999999997 0.04000000000000001 0.09923913043478261
0.027999999999999997 0.04000000000000001 0.09141304347826086
0.027999999999999997 0.041999999999999996 -0.0875
0.027999999999999997 0.041999999999999996 0.09923913043478261
0.027999999999999997 0.041999999999999996 0.09010869565217391
0.027999999999999997 0.044 -0.0875
0.027999999999999997 0.044 0.09923913043478261
