-0.001999999999999995 -0.0385 0.11162371134020618
-0.001999999999999995 -0.036500000000000005 -0.1075
-0.001999999999999995 -0.036500000000000005 0.12638888888888888
-0.001999999999999995 -0.036500000000000005 0.11244845360824741
-0.001999999999999995 -0.0345 -0.1075
-0.001999999999999995 -0.0345 0.12638888888888888
-0.001999999999999995 -0.0345 0.11327319587628866
-0.001999999999999995 -0.0325 -0.1075
-0.001999999999999995 -0.0325 0.12638888888888888
-0.001999999999999995 -0.0325 0.11409793814432989
-0.001999999999999995 -0.0305 -0.1075
-0.001999999999999995 -0.0305 0.12638888888888888
-0.001999999999999995 -0.0305 0.11492268041237114
-0.001999999999999995 -0.0285 -0.1075
-0.001999999999999995 -0.0285 0.12638888888888888
-0.001999999999999995 -0.0285 0.11574742268041237
-0.001999999999999995 -0.026500000000000003 -0.1075
-0.001999999999999995 -0.026500000000000003 0.12638888888888888
-0.001999999999999995 -0.026500000000000003 0.1165721649484536
-0.001999999999999995 -0.0245 -0.1075
-0.001999999999999995 -0.0245 0.12638888888888888
-0.001999999999999995 -0.0245 0.11739690721649484
-0.001999999999999995 -0.0225 -0.1075
-0.001999999999999995 -0.0225 0.12638888888888888
-0.001999999999999995 -0.0225 0.11822164948453609
-0.001999999999999995 -0.0205 -0.1075
-0.001999999999999995 -0.0205 0.12638888888888888
-0.001999999999999995 -0.0205 0.11904639175257732
-0.001999999999999995 -0.018500000000000003 -0.1075
-0.001999999999999995 -0.018500000000000003 0.12638888888888888
-0.001999999999999995 -0.018500000000000003 0.11987113402061855
-0.001999999999999995 -0.0165 -0.1075
-0.001999999999999995 -0.0165 0.12638888888888888
-0.001999999999999995 -0.0165 0.1206958762886598
-0.001999999999999995 -0.014499999999999999 -0.1075
-0.001999999999999995 -0.014499999999999999 0.12638888888888888
-0.001999999999999995 -0.014499999999999999 0.12152061855670103
-0.001999999999999995 -0.012499999999999997 -0.1075
-0.001999999999999995 -0.012499999999999997 0.12638888888888888
-0.001999999999999995 -0.012499999999999997 0.12234536082474226
-0.001999999999999995 -0.010500000000000002 -0.1075
-0.001999999999999995 -0.010500000000000002 0.12638888888888888
-0.001999999999999995 -0.010500000000000002 0.1231701030927835
-0.001999999999999995 -0.0085 -0.1075
-0.001999999999999995 -0.0085 0.12638888888888888
-0.001999999999999995 -0.0085 0.12399484536082474
-0.001999999999999995 -0.006499999999999999 -0.1075
-0.001999999999999995 -0.006499999999999999 0.12638888888888888
-0.001999999999999995 -0.006499999999999999 0.12481958762886598
-0.001999999999999995 -0.004500000000000004 -0.1075
-0.001999999999999995 -0.004500000000000004 0.12638888888888888
-0.001999999999999995 -0.004500000000000004 0.12564432989690721
-0.001999999999999995 -0.0025000000000000022 -0.1075
-0.001999999999999995 -0.0025000000000000022 0.12638888888888888
-0.001999999999999995 -0.0005000000000000004 -0.1075
-0.001999999999999995 -0.0005000000000000004 0.12638888888888888
-0.001999999999999995 0.0015000000000000013 -0.1075
-0.001999999999999995 0.0015000000000000013 0.12638888888888888
-0.001999999999999995 0.003500000000000003 -0.1075
-0.001999999999999995 0.003500000000000003 0.12638888888888888
-0.001999999999999995 0.003500000000000003 0.12605670103092784
-0.001999999999999995 0.005499999999999998 -0.1075
-0.001999999999999995 0.005499999999999998 0.12638888888888888
-0.001999999999999995 0.005499999999999998 0.1252319587628866
-0.001999999999999995 0.0075 -0.1075
-0.001999999999999995 0.0075 0.12638888888888888
-0.001999999999999995 0.0075 0.12440721649484536
-0.001999999999999995 0.009500000000000001 -0.1075
-0.001999999999999995 0.009500000000000001 0.12638888888888888
-0.001999999999999995 0.009500000000000001 0.12358247422680413
-0.001999999999999995 0.011499999999999996 -0.1075
-0.001999999999999995 0.011499999999999996 0.12638888888888888
-0.001999999999999995 0.011499999999999996 0.12275773195876288
-0.001999999999999995 0.013499999999999998 -0.1075
-0.001999999999999995 0.013499999999999998 0.12638888888888888
-0.001999999999999995 0.013499999999999998 0.12193298969072165
-0.001999999999999995 0.0155 -0.1075
-0.001999999999999995 0.0155 0.12638888888888888
-0.001999999999999995 0.0155 0.1211082474226804
-0.001999999999999995 0.0175 -0.1075
-0.001999999999999995 0.0175 0.12638888888888888
-0.001999999999999995 0.0175 0.12028350515463918
-0.001999999999999995 0.019500000000000003 -0.1075
-0.001999999999999995 0.019500000000000003 0.12638888888888888
-0.001999999999999995 0.019500000000000003 0.11945876288659793
-0.001999999999999995 0.021500000000000005 -0.1075
-0.001999999999999995 0.021500000000000005 0.12638888888888888
-0.001999999999999995 0.021500000000000005 0.1186340206185567
-0.001999999999999995 0.023500000000000007 -0.1075
-0.001999999999999995 0.023500000000000007 0.12638888888888888
-0.001999999999999995 0.023500000000000007 0.11780927835051547
-0.001999999999999995 0.025499999999999995 -0.1075
-0.001999999999999995 0.025499999999999995 0.12638888888888888
-0.001999999999999995 0.025499999999999995 0.11698453608247422
-0.001999999999999995 0.027499999999999997 -0.1075
-0.001999999999999995 0.027499999999999997 0.12638888888888888
-0.001999999999999995 0.027499999999999997 0.11615979381443299
-0.001999999999999995 0.0295 -0.1075
-0.001999999999999995 0.0295 0.12638888888888888
-0.001999999999999995 0.0295 0.11533505154639176
-0.001999999999999995 0.0315 -0.1075
-0.001999999999999995 0.0315 0.12638888888888888
-0.001999999999999995 0.0315 0.11451030927835051
-0.001999999999999995 0.0335 -0.1075
-0.001999999999999995 0.0335 0.12638888888888888
-0.001999999999999995 0.0335 0.11368556701030928
-0.001999999999999995 0.035500000000000004 -0.1075
-0.001999999999999995 0.035500000000000004 0.12638888888888888
-0.001999999999999995 0.035500000000000004 0.11286082474226804
-0.001999999999999995 0.037500000000000006 -0.1075
-0.001999999999999995 0.037500000000000006 0.12638888888888888
-0.001999999999999995 0.037500000000000006 0.1120360824742268
-0.001999999999999995 0.03949999999999999 -0.1075
-0.001999999999999995 0.03949999999999999 0.12638888888888888
-0.001999999999999995 0.03949999999999999 0.11121134020618557
-0.001999999999999995 0.041499999999999995 -0.1075
-0.001999999999999995 0.041499999999999995 0.12638888888888888
-0.001999999999999995 0.041499999999999995 0.11038659793814433
-0.001999999999999995 0.0435 -0.1075
-0.001999999999999995 0.0435 0.12638888888888888
-0.001999999999999995 0.0435 0.1095618556701031
-0.001999999999999995 0.0455 -0.1075
-0.001999999999999995 0.0455 0.12638888888888888
-0.001999999999999995 0.0455 0.10873711340206185
6.938893903907228e-18 -0.0485 -0.1075
6.938893903907228e-18 -0.0485 0.1275
6.938893903907228e-18 -0.0485 0.1075
6.938893903907228e-18 -0.0465 -0.1075
6.938893903907228e-18 -0.0465 0.1275
6.938893903907228e-18 -0.0465 0.10832474226804124
6.938893903907228e-18 -0.0445 -0.1075
6.938893903907228e-18 -0.0445 0.1275
6.938893903907228e-18 -0.0445 0.10914948453608248
6.938893903907228e-18 -0.0425 -0.1075
6.938893903907228e-18 -0.0425 0.1275
6.938893903907228e-18 -0.0425 0.1099742268041237
6.938893903907228e-18 -0.0405 -0.1075
6.938893903907228e-18 -0.0405 0.1275
6.938893903907228e-18 -0.0405 0.11079896907216495
6.938893903907228e-18 -0.0385 -0.1075
6.938893903907228e-18 -0.0385 0.1275
6.938893903907228e-18 -0.0385 0.11162371134020618
6.938893903907228e-18 -0.036500000000000005 -0.1075
6.938893903907228e-18 -0.036500000000000005 0.1275
6.938893903907228e-18 -0.036500000000000005 0.11244845360824741
6.938893903907228e-18 -0.0345 -0.1075
6.938893903907228e-18 -0.0345 0.1275
6.938893903907228e-18 -0.0345 0.11327319587628866
6.938893903907228e-18 -0.0325 -0.1075
6.938893903907228e-18 -0.0325 0.1275
6.938893903907228e-18 -0.0325 0.11409793814432989
6.938893903907228e-18 -0.0305 -0.1075
6.938893903907228e-18 -0.0305 0.1275
6.938893903907228e-18 -0.0305 0.11492268041237114
6.938893903907228e-18 -0.0285 -0.1075
6.938893903907228e-18 -0.0285 0.1275
6.938893903907228e-18 -0.0285 0.11574742268041237
6.938893903907228e-18 -0.026500000000000003 -0.1075
6.938893903907228e-18 -0.026500000000000003 0.1275
6.938893903907228e-18 -0.026500000000000003 0.1165721649484536
6.938893903907228e-18 -0.0245 -0.1075
6.938893903907228e-18 -0.0245 0.1275
6.938893903907228e-18 -0.0245 0.11739690721649484
6.938893903907228e-18 -0.0225 -0.1075
6.938893903907228e-18 -0.0225 0.1275
6.938893903907228e-18 -0.0225 0.11822164948453609
6.938893903907228e-18 -0.0205 -0.1075
6.938893903907228e-18 -0.0205 0.1275
6.938893903907228e-18 -0.0205 0.11904639175257732
6.938893903907228e-18 -0.018500000000000003 -0.1075
6.938893903907228e-18 -0.018500000000000003 0.1275
6.938893903907228e-18 -0.018500000000000003 0.11987113402061855
6.938893903907228e-18 -0.0165 -0.1075
6.938893903907228e-18 -0.0165 0.1275
6.938893903907228e-18 -0.0165 0.1206958762886598
6.938893903907228e-18 -0.014499999999999999 -0.1075
6.938893903907228e-18 -0.014499999999999999 0.1275
6.938893903907228e-18 -0.014499999999999999 0.12152061855670103
6.938893903907228e-18 -0.012499999999999997 -0.1075
6.938893903907228e-18 -0.012499999999999997 0.1275
6.938893903907228e-18 -0.012499999999999997 0.12234536082474226
6.938893903907228e-18 -0.010500000000000002 -0.1075
6.938893903907228e-18 -0.010500000000000002 0.1275
6.938893903907228e-18 -0.010500000000000002 0.1231701030927835
6.938893903907228e-18 -0.0085 -0.1075
6.938893903907228e-18 -0.0085 0.1275
6.938893903907228e-18 -0.0085 0.12399484536082474
6.938893903907228e-18 -0.006499999999999999 -0.1075
6.938893903907228e-18 -0.006499999999999999 0.1275
6.938893903907228e-18 -0.006499999999999999 0.12481958762886598
6.938893903907228e-18 -0.004500000000000004 -0.1075
6.938893903907228e-18 -0.004500000000000004 0.1275
6.938893903907228e-18 -0.004500000000000004 0.12564432989690721
6.938893903907228e-18 -0.0025000000000000022 -0.1075
6.938893903907228e-18 -0.0025000000000000022 0.1275
6.938893903907228e-18 -0.0025000000000000022 0.12646907216494846
6.938893903907228e-18 -0.0005000000000000004 -0.1075
6.938893903907228e-18 -0.0005000000000000004 0.1275
6.938893903907228e-18 -0.0005000000000000004 0.1272938144329897
6.938893903907228e-18 0.0015000000000000013 -0.1075
6.938893903907228e-18 0.0015000000000000013 0.1275
6.938893903907228e-18 0.0015000000000000013 0.12688144329896908
6.938893903907228e-18 0.003500000000000003 -0.1075
6.938893903907228e-18 0.003500000000000003 0.1275
6.938893903907228e-18 0.003500000000000003 0.12605670103092784
6.938893903907228e-18 0.005499999999999998 -0.1075
6.938893903907228e-18 0.005499999999999998 0.1275
6.938893903907228e-18 0.005499999999999998 0.1252319587628866
6.938893903907228e-18 0.0075 -0.1075
6.938893903907228e-18 0.0075 0.1275
6.938893903907228e-18 0.0075 0.12440721649484536
6.938893903907228e-18 0.009500000000000001 -0.1075
6.938893903907228e-18 0.009500000000000001 0.1275
6.938893903907228e-18 0.009500000000000001 0.12358247422680413
6.938893903907228e-18 0.011499999999999996 -0.1075
6.938893903907228e-18 0.011499999999999996 0.1275
6.938893903907228e-18 0.011499999999999996 0.12275773195876288
6.938893903907228e-18 0.013499999999999998 -0.1075
6.938893903907228e-18 0.013499999999999998 0.1275
6.938893903907228e-18 0.013499999999999998 0.12193298969072165
6.938893903907228e-18 0.0155 -0.1075
6.938893903907228e-18 0.0155 0.1275
6.938893903907228e-18 0.0155 0.1211082474226804
6.938893903907228e-18 0.0175 -0.1075
6.938893903907228e-18 0.0175 0.1275
6.938893903907228e-18 0.0175 0.12028350515463918
6.938893903907228e-18 0.019500000000000003 -0.1075
6.938893903907228e-18 0.019500000000000003 0.1275
6.938893903907228e-18 0.019500000000000003 0.11945876288659793
6.938893903907228e-18 0.021500000000000005 -0.1075
6.938893903907228e-18 0.021500000000000005 0.1275
6.938893903907228e-18 0.021500000000000005 0.1186340206185567
6.938893903907228e-18 0.023500000000000007 -0.1075
6.938893903907228e-18 0.023500000000000007 0.1275
6.938893903907228e-18 0.023500000000000007 0.11780927835051547
6.938893903907228e-18 0.025499999999999995 -0.1075
6.938893903907228e-18 0.025499999999999995 0.1275
6.938893903907228e-18 0.025499999999999995 0.11698453608247422
6.938893903907228e-18 0.027499999999999997 -0.1075
6.938893903907228e-18 0.027499999999999997 0.1275
6.938893903907228e-18 0.027499999999999997 0.11615979381443299
6.938893903907228e-18 0.0295 -0.1075
6.938893903907228e-18 0.0295 0.1275
6.938893903907228e-18 0.0295 0.11533505154639176
6.938893903907228e-18 0.0315 -0.1075
6.938893903907228e-18 0.0315 0.1275
6.938893903907228e-18 0.0315 0.11451030927835051
6.938893903907228e-18 0.0335 -0.1075
6.938893903907228e-18 0.0335 0.1275
6.938893903907228e-18 0.0335 0.11368556701030928
6.938893903907228e-18 0.035500000000000004 -0.1075
6.938893903907228e-18 0.035500000000000004 0.1275
6.938893903907228e-18 0.035500000000000004 0.11286082474226804
6.938893903907228e-18 0.037500000000000006 -0.1075
6.938893903907228e-18 0.037500000000000006 0.1275
6.938893903907228e-18 0.037500000000000006 0.1120360824742268
6.938893903907228e-18 0.03949999999999999 -0.1075
6.938893903907228e-18 0.03949999999999999 0.1275
6.938893903907228e-18 0.03949999999999999 0.11121134020618557
6.938893903907228e-18 0.041499999999999995 -0.1075
6.938893903907228e-18 0.041499999999999995 0.1275
6.938893903907228e-18 0.041499999999999995 0.11038659793814433
6.938893903907228e-18 0.0435 -0.1075
6.938893903907228e-18 0.0435 0.1275
6.938893903907228e-18 0.0435 0.1095618556701031
6.938893903907228e-18 0.0455 -0.1075
6.938893903907228e-18 0.0455 0.1275
6.938893903907228e-18 0.0455 0.10873711340206185
0.0020000000000000018 -0.0485 -0.1075
0.0020000000000000018 -0.0485 0.12638888888888888
0.0020000000000000018 -0.0485 0.1075
0.0020000000000000018 -0.0465 -0.1075
0.0020000000000000018 -0.0465 0.12638888888888888
0.0020000000000000018 -0.0465 0.10832474226804124
0.0020000000000000018 -0.0445 -0.1075
0.0020000000000000018 -0.0445 0.12638888888888888
0.0020000000000000018 -0.0445 0.10914948453608248
0.0020000000000000018 -0.0425 -0.1075
0.0020000000000000018 -0.0425 0.12638888888888888
0.0020000000000000018 -0.0425 0.1099742268041237
0.0020000000000000018 -0.0405 -0.1075
0.0020000000000000018 -0.0405 0.12638888888888888
0.0020000000000000018 -0.0405 0.11079896907216495
0.0020000000000000018 -0.0385 -0.1075
0.0020000000000000018 -0.0385 0.12638888888888888
0.0020000000000000018 -0.0385 0.11162371134020618
0.0020000000000000018 -0.036500000000000005 -0.1075
0.0020000000000000018 -0.036500000000000005 0.12638888888888888
0.0020000000000000018 -0.036500000000000005 0.11244845360824741
0.0020000000000000018 -0.0345 -0.1075
0.0020000000000000018 -0.0345 0.12638888888888888
0.0020000000000000018 -0.0345 0.11327319587628866
0.0020000000000000018 -0.0325 -0.1075
0.0020000000000000018 -0.0325 0.12638888888888888
0.0020000000000000018 -0.0325 0.11409793814432989
0.0020000000000000018 -0.0305 -0.1075
0.0020000000000000018 -0.0305 0.12638888888888888
0.0020000000000000018 -0.0305 0.11492268041237114
0.0020000000000000018 -0.0285 -0.1075
0.0020000000000000018 -0.0285 0.12638888888888888
0.0020000000000000018 -0.0285 0.11574742268041237
0.0020000000000000018 -0.026500000000000003 -0.1075
0.0020000000000000018 -0.026500000000000003 0.12638888888888888
0.0020000000000000018 -0.026500000000000003 0.1165721649484536
0.0020000000000000018 -0.0245 -0.1075
0.0020000000000000018 -0.0245 0.12638888888888888
0.0020000000000000018 -0.0245 0.11739690721649484
0.0020000000000000018 -0.0225 -0.1075
0.0020000000000000018 -0.0225 0.12638888888888888
0.0020000000000000018 -0.0225 0.11822164948453609
0.0020000000000000018 -0.0205 -0.1075
0.0020000000000000018 -0.0205 0.12638888888888888
0.0020000000000000018 -0.0205 0.11904639175257732
0.0020000000000000018 -0.018500000000000003 -0.1075
0.0020000000000000018 -0.018500000000000003 0.12638888888888888
0.0020000000000000018 -0.018500000000000003 0.11987113402061855
0.0020000000000000018 -0.0165 -0.1075
0.0020000000000000018 -0.0165 0.12638888888888888
0.0020000000000000018 -0.0165 0.1206958762886598
0.0020000000000000018 -0.014499999999999999 -0.1075
0.0020000000000000018 -0.014499999999999999 0.12638888888888888
0.0020000000000000018 -0.014499999999999999 0.12152061855670103
0.0020000000000000018 -0.012499999999999997 -0.1075
0.0020000000000000018 -0.012499999999999997 0.12638888888888888
0.0020000000000000018 -0.012499999999999997 0.12234536082474226
0.0020000000000000018 -0.010500000000000002 -0.1075
0.0020000000000000018 -0.010500000000000002 0.12638888888888888
0.0020000000000000018 -0.010500000000000002 0.1231701030927835
0.0020000000000000018 -0.0085 -0.1075
0.0020000000000000018 -0.0085 0.12638888888888888
0.0020000000000000018 -0.0085 0.12399484536082474
0.0020000000000000018 -0.006499999999999999 -0.1075
0.0020000000000000018 -0.006499999999999999 0.12638888888888888
0.0020000000000000018 -0.006499999999999999 0.12481958762886598
0.0020000000000000018 -0.004500000000000004 -0.1075
0.0020000000000000018 -0.004500000000000004 0.12638888888888888
0.0020000000000000018 -0.004500000000000004 0.12564432989690721
0.0020000000000000018 -0.0025000000000000022 -0.1075
0.0020000000000000018 -0.0025000000000000022 0.12638888888888888
0.0020000000000000018 -0.0005000000000000004 -0.1075
0.0020000000000000018 -0.0005000000000000004 0.12638888888888888
0.0020000000000000018 0.0015000000000000013 -0.1075
0.0020000000000000018 0.0015000000000000013 0.12638888888888888
0.0020000000000000018 0.003500000000000003 -0.1075
0.0020000000000000018 0.003500000000000003 0.12638888888888888
0.0020000000000000018 0.003500000000000003 0.12605670103092784
0.0020000000000000018 0.005499999999999998 -0.1075
0.0020000000000000018 0.005499999999999998 0.12638888888888888
0.0020000000000000018 0.005499999999999998 0.1252319587628866
0.0020000000000000018 0.0075 -0.1075
0.0020000000000000018 0.0075 0.12638888888888888
0.0020000000000000018 0.0075 0.12440721649484536
0.0020000000000000018 0.009500000000000001 -0.1075
0.0020000000000000018 0.009500000000000001 0.12638888888888888
0.0020000000000000018 0.009500000000000001 0.12358247422680413
0.0020000000000000018 0.011499999999999996 -0.1075
0.0020000000000000018 0.011499999999999996 0.12638888888888888
0.0020000000000000018 0.011499999999999996 0.12275773195876288
0.0020000000000000018 0.013499999999999998 -0.1075
0.0020000000000000018 0.013499999999999998 0.12638888888888888
0.0020000000000000018 0.013499999999999998 0.12193298969072165
0.0020000000000000018 0.0155 -0.1075
0.0020000000000000018 0.0155 0.12638888888888888
0.0020000000000000018 0.0155 0.1211082474226804
0.0020000000000000018 0.0175 -0.1075
0.0020000000000000018 0.0175 0.12638888888888888
0.0020000000000000018 0.0175 0.12028350515463918
0.0020000000000000018 0.019500000000000003 -0.1075
0.0020000000000000018 0.019500000000000003 0.12638888888888888
0.0020000000000000018 0.019500000000000003 0.11945876288659793
0.0020000000000000018 0.021500000000000005 -0.1075
0.0020000000000000018 0.021500000000000005 0.12638888888888888
0.0020000000000000018 0.021500000000000005 0.1186340206185567
0.0020000000000000018 0.023500000000000007 -0.1075
0.0020000000000000018 0.023500000000000007 0.12638888888888888
0.0020000000000000018 0.023500000000000007 0.11780927835051547
0.0020000000000000018 0.025499999999999995 -0.1075
0.0020000000000000018 0.025499999999999995 0.12638888888888888
0.0020000000000000018 0.025499999999999995 0.11698453608247422
0.0020000000000000018 0.027499999999999997 -0.1075
0.0020000000000000018 0.027499999999999997 0.12638888888888888
0.0020000000000000018 0.027499999999999997 0.11615979381443299
0.0020000000000000018 0.0295 -0.1075
0.0020000000000000018 0.0295 0.12638888888888888
0.0020000000000000018 0.0295 0.11533505154639176
0.0020000000000000018 0.0315 -0.1075
0.0020000000000000018 0.0315 0.12638888888888888
0.0020000000000000018 0.0315 0.11451030927835051
0.0020000000000000018 0.0335 -0.1075
0.0020000000000000018 0.0335 0.12638888888888888
0.0020000000000000018 0.0335 0.11368556701030928
0.0020000000000000018 0.035500000000000004 -0.1075
0.0020000000000000018 0.035500000000000004 0.12638888888888888
0.0020000000000000018 0.035500000000000004 0.11286082474226804
0.0020000000000000018 0.037500000000000006 -0.1075
0.0020000000000000018 0.037500000000000006 0.12638888888888888
0.0020000000000000018 0.037500000000000006 0.1120360824742268
0.0020000000000000018 0.03949999999999999 -0.1075
0.0020000000000000018 0.03949999999999999 0.12638888888888888
0.0020000000000000018 0.03949999999999999 0.11121134020618557
0.0020000000000000018 0.041499999999999995 -0.1075
0.0020000000000000018 0.041499999999999995 0.12638888888888888
0.0020000000000000018 0.041499999999999995 0.11038659793814433
0.0020000000000000018 0.0435 -0.1075
0.0020000000000000018 0.0435 0.12638888888888888
0.0020000000000000018 0.0435 0.1095618556701031
0.0020000000000000018 0.0455 -0.1075
0.0020000000000000018 0.0455 0.12638888888888888
0.0020000000000000018 0.0455 0.10873711340206185
0.0040000000000000036 -0.0485 -0.1075
0.0040000000000000036 -0.0485 0.12527777777777777
0.0040000000000000036 -0.0485 0.1075
0.0040000000000000036 -0.0465 -0.1075
0.0040000000000000036 -0.0465 0.12527777777777777
0.0040000000000000036 -0.0465 0.10832474226804124
0.0040000000000000036 -0.0445 -0.1075
0.0040000000000000036 -0.0445 0.12527777777777777
0.0040000000000000036 -0.0445 0.10914948453608248
0.0040000000000000036 -0.0425 -0.1075
0.0040000000000000036 -0.0425 0.12527777777777777
0.0040000000000000036 -0.0425 0.1099742268041237
0.0040000000000000036 -0.0405 -0.1075
0.0040000000000000036 -0.0405 0.12527777777777777
0.0040000000000000036 -0.0405 0.11079896907216495
0.0040000000000000036 -0.0385 -0.1075
0.0040000000000000036 -0.0385 0.12527777777777777
0.0040000000000000036 -0.0385 0.11162371134020618
0.0040000000000000036 -0.036500000000000005 -0.1075
0.0040000000000000036 -0.036500000000000005 0.12527777777777777
0.0040000000000000036 -0.036500000000000005 0.11244845360824741
0.0040000000000000036 -0.0345 -0.1075
0.0040000000000000036 -0.0345 0.12527777777777777
0.0040000000000000036 -0.0345 0.11327319587628866
0.0040000000000000036 -0.0325 -0.1075
0.0040000000000000036 -0.0325 0.12527777777777777
0.0040000000000000036 -0.0325 0.11409793814432989
0.0040000000000000036 -0.0305 -0.1075
0.0040000000000000036 -0.0305 0.12527777777777777
0.0040000000000000036 -0.0305 0.11492268041237114
0.0040000000000000036 -0.0285 -0.1075
0.0040000000000000036 -0.0285 0.12527777777777777
0.0040000000000000036 -0.0285 0.11574742268041237
0.0040000000000000036 -0.026500000000000003 -0.1075
0.0040000000000000036 -0.026500000000000003 0.12527777777777777
0.0040000000000000036 -0.026500000000000003 0.1165721649484536
0.0040000000000000036 -0.0245 -0.1075
0.0040000000000000036 -0.0245 0.12527777777777777
0.0040000000000000036 -0.0245 0.11739690721649484
0.0040000000000000036 -0.0225 -0.1075
0.0040000000000000036 -0.0225 0.12527777777777777
0.0040000000000000036 -0.0225 0.11822164948453609
0.0040000000000000036 -0.0205 -0.1075
0.0040000000000000036 -0.0205 0.12527777777777777
0.0040000000000000036 -0.0205 0.11904639175257732
0.0040000000000000036 -0.018500000000000003 -0.1075
0.0040000000000000036 -0.018500000000000003 0.12527777777777777
0.0040000000000000036 -0.018500000000000003 0.11987113402061855
0.0040000000000000036 -0.0165 -0.1075
0.0040000000000000036 -0.0165 0.12527777777777777
0.0040000000000000036 -0.0165 0.1206958762886598
0.0040000000000000036 -0.014499999999999999 -0.1075
0.0040000000000000036 -0.014499999999999999 0.12527777777777777
0.0040000000000000036 -0.014499999999999999 0.12152061855670103
0.0040000000000000036 -0.012499999999999997 -0.1075
0.0040000000000000036 -0.012499999999999997 0.12527777777777777
0.0040000000000000036 -0.012499999999999997 0.12234536082474226
0.0040000000000000036 -0.010500000000000002 -0.1075
0.0040000000000000036 -0.010500000000000002 0.12527777777777777
0.0040000000000000036 -0.010500000000000002 0.1231701030927835
0.0040000000000000036 -0.0085 -0.1075
0.0040000000000000036 -0.0085 0.12527777777777777
0.0040000000000000036 -0.0085 0.12399484536082474
0.0040000000000000036 -0.006499999999999999 -0.1075
0.0040000000000000036 -0.006499999999999999 0.12527777777777777
0.0040000000000000036 -0.006499999999999999 0.12481958762886598
0.0040000000000000036 -0.004500000000000004 -0.1075
0.0040000000000000036 -0.004500000000000004 0.12527777777777777
0.0040000000000000036 -0.0025000000000000022 -0.1075
0.0040000000000000036 -0.0025000000000000022 0.12527777777777777
0.0040000000000000036 -0.0005000000000000004 -0.1075
0.0040000000000000036 -0.0005000000000000004 0.12527777777777777
0.0040000000000000036 0.0015000000000000013 -0.1075
0.0040000000000000036 0.0015000000000000013 0.12527777777777777
0.0040000000000000036 0.003500000000000003 -0.1075
0.0040000000000000036 0.003500000000000003 0.12527777777777777
0.0040000000000000036 0.005499999999999998 -0.1075
0.0040000000000000036 0.005499999999999998 0.12527777777777777
0.0040000000000000036 0.005499999999999998 0.1252319587628866
0.0040000000000000036 0.0075 -0.1075
0.0040000000000000036 0.0075 0.12527777777777777
0.0040000000000000036 0.0075 0.12440721649484536
0.0040000000000000036 0.009500000000000001 -0.1075
0.0040000000000000036 0.009500000000000001 0.12527777777777777
0.0040000000000000036 0.009500000000000001 0.12358247422680413
0.0040000000000000036 0.011499999999999996 -0.1075
0.0040000000000000036 0.011499999999999996 0.12527777777777777
0.0040000000000000036 0.011499999999999996 0.12275773195876288
0.0040000000000000036 0.013499999999999998 -0.1075
0.0040000000000000036 0.013499999999999998 0.12527777777777777
0.0040000000000000036 0.013499999999999998 0.12193298969072165
0.0040000000000000036 0.0155 -0.1075
0.0040000000000000036 0.0155 0.12527777777777777
0.0040000000000000036 0.0155 0.1211082474226804
0.0040000000000000036 0.0175 -0.1075
0.0040000000000000036 0.0175 0.12527777777777777
0.0040000000000000036 0.0175 0.12028350515463918
0.0040000000000000036 0.019500000000000003 -0.1075
0.0040000000000000036 0.019500000000000003 0.12527777777777777
0.0040000000000000036 0.019500000000000003 0.11945876288659793
0.0040000000000000036 0.021500000000000005 -0.1075
0.0040000000000000036 0.021500000000000005 0.12527777777777777
0.0040000000000000036 0.021500000000000005 0.1186340206185567
0.0040000000000000036 0.023500000000000007 -0.1075
0.0040000000000000036 0.023500000000000007 0.12527777777777777
0.0040000000000000036 0.023500000000000007 0.11780927835051547
0.0040000000000000036 0.025499999999999995 -0.1075
0.0040000000000000036 0.025499999999999995 0.12527777777777777
0.0040000000000000036 0.025499999999999995 0.11698453608247422
0.0040000000000000036 0.027499999999999997 -0.1075
0.0040000000000000036 0.027499999999999997 0.12527777777777777
0.0040000000000000036 0.027499999999999997 0.11615979381443299
0.0040000000000000036 0.0295 -0.1075
0.0040000000000000036 0.0295 0.12527777777777777
0.0040000000000000036 0.0295 0.11533505154639176
0.0040000000000000036 0.0315 -0.1075
0.0040000000000000036 0.0315 0.12527777777777777
0.0040000000000000036 0.0315 0.11451030927835051
0.0040000000000000036 0.0335 -0.1075
0.0040000000000000036 0.0335 0.12527777777777777
0.0040000000000000036 0.0335 0.11368556701030928
0.0040000000000000036 0.035500000000000004 -0.1075
0.0040000000000000036 0.035500000000000004 0.12527777777777777
0.0040000000000000036 0.035500000000000004 0.11286082474226804
0.0040000000000000036 0.037500000000000006 -0.1075
0.0040000000000000036 0.037500000000000006 0.12527777777777777
0.0040000000000000036 0.037500000000000006 0.1120360824742268
0.0040000000000000036 0.03949999999999999 -0.1075
0.0040000000000000036 0.03949999999999999 0.12527777777777777
0.0040000000000000036 0.03949999999999999 0.11121134020618557
0.0040000000000000036 0.041499999999999995 -0.1075
0.0040000000000000036 0.041499999999999995 0.12527777777777777
0.0040000000000000036 0.041499999999999995 0.11038659793814433
0.0040000000000000036 0.0435 -0.1075
0.0040000000000000036 0.0435 0.12527777777777777
0.0040000000000000036 0.0435 0.1095618556701031
0.0040000000000000036 0.0455 -0.1075
0.0040000000000000036 0.0455 0.12527777777777777
0.0040000000000000036 0.0455 0.10873711340206185
0.006000000000000005 -0.0485 -0.1075
0.006000000000000005 -0.0485 0.12416666666666666
0.006000000000000005 -0.0485 0.1075
0.006000000000000005 -0.0465 -0.1075
0.006000000000000005 -0.0465 0.12416666666666666
0.006000000000000005 -0.0465 0.10832474226804124
0.006000000000000005 -0.0445 -0.1075
0.006000000000000005 -0.0445 0.12416666666666666
0.006000000000000005 -0.0445 0.10914948453608248
0.006000000000000005 -0.0425 -0.1075
0.006000000000000005 -0.0425 0.12416666666666666
0.006000000000000005 -0.0425 0.1099742268041237
0.006000000000000005 -0.0405 -0.1075
0.006000000000000005 -0.0405 0.12416666666666666
0.006000000000000005 -0.0405 0.11079896907216495
0.006000000000000005 -0.0385 -0.1075
0.006000000000000005 -0.0385 0.12416666666666666
0.006000000000000005 -0.0385 0.11162371134020618
0.006000000000000005 -0.036500000000000005 -0.1075
0.006000000000000005 -0.036500000000000005 0.12416666666666666
0.006000000000000005 -0.036500000000000005 0.11244845360824741
0.006000000000000005 -0.0345 -0.1075
0.006000000000000005 -0.0345 0.12416666666666666
0.006000000000000005 -0.0345 0.11327319587628866
0.006000000000000005 -0.0325 -0.1075
0.006000000000000005 -0.0325 0.12416666666666666
0.006000000000000005 -0.0325 0.11409793814432989
0.006000000000000005 -0.0305 -0.1075
0.006000000000000005 -0.0305 0.12416666666666666
0.006000000000000005 -0.0305 0.11492268041237114
0.006000000000000005 -0.0285 -0.1075
0.006000000000000005 -0.0285 0.12416666666666666
0.006000000000000005 -0.0285 0.11574742268041237
0.006000000000000005 -0.026500000000000003 -0.1075
0.006000000000000005 -0.026500000000000003 0.12416666666666666
0.006000000000000005 -0.026500000000000003 0.1165721649484536
0.006000000000000005 -0.0245 -0.1075
0.006000000000000005 -0.0245 0.12416666666666666
0.006000000000000005 -0.0245 0.11739690721649484
0.006000000000000005 -0.0225 -0.1075
0.006000000000000005 -0.0225 0.12416666666666666
0.006000000000000005 -0.0225 0.11822164948453609
0.006000000000000005 -0.0205 -0.1075
0.006000000000000005 -0.0205 0.12416666666666666
0.006000000000000005 -0.0205 0.11904639175257732
0.006000000000000005 -0.018500000000000003 -0.1075
0.006000000000000005 -0.018500000000000003 0.12416666666666666
0.006000000000000005 -0.018500000000000003 0.11987113402061855
0.006000000000000005 -0.0165 -0.1075
0.006000000000000005 -0.0165 0.12416666666666666
0.006000000000000005 -0.0165 0.1206958762886598
0.006000000000000005 -0.014499999999999999 -0.1075
0.006000000000000005 -0.014499999999999999 0.12416666666666666
0.006000000000000005 -0.014499999999999999 0.12152061855670103
0.006000000000000005 -0.012499999999999997 -0.1075
0.006000000000000005 -0.012499999999999997 0.12416666666666666
0.006000000000000005 -0.012499999999999997 0.12234536082474226
0.006000000000000005 -0.010500000000000002 -0.1075
0.006000000000000005 -0.010500000000000002 0.12416666666666666
0.006000000000000005 -0.010500000000000002 0.1231701030927835
0.006000000000000005 -0.0085 -0.1075
0.006000000000000005 -0.0085 0.12416666666666666
0.006000000000000005 -0.0085 0.12399484536082474
0.006000000000000005 -0.006499999999999999 -0.1075
0.006000000000000005 -0.006499999999999999 0.12416666666666666
0.006000000000000005 -0.004500000000000004 -0.1075
0.006000000000000005 -0.004500000000000004 0.12416666666666666
0.006000000000000005 -0.0025000000000000022 -0.1075
0.006000000000000005 -0.0025000000000000022 0.12416666666666666
0.006000000000000005 -0.0005000000000000004 -0.1075
0.006000000000000005 -0.0005000000000000004 0.12416666666666666
0.006000000000000005 0.0015000000000000013 -0.1075
0.006000000000000005 0.0015000000000000013 0.12416666666666666
0.006000000000000005 0.003500000000000003 -0.1075
0.006000000000000005 0.003500000000000003 0.12416666666666666
0.006000000000000005 0.005499999999999998 -0.1075
0.006000000000000005 0.005499999999999998 0.12416666666666666
0.006000000000000005 0.0075 -0.1075
0.006000000000000005 0.0075 0.12416666666666666
0.006000000000000005 0.009500000000000001 -0.1075
0.006000000000000005 0.009500000000000001 0.12416666666666666
0.006000000000000005 0.009500000000000001 0.12358247422680413
0.006000000000000005 0.011499999999999996 -0.1075
0.006000000000000005 0.011499999999999996 0.12416666666666666
0.006000000000000005 0.011499999999999996 0.12275773195876288
0.006000000000000005 0.013499999999999998 -0.1075
0.006000000000000005 0.013499999999999998 0.12416666666666666
0.006000000000000005 0.013499999999999998 0.12193298969072165
0.006000000000000005 0.0155 -0.1075
0.006000000000000005 0.0155 0.12416666666666666
0.006000000000000005 0.0155 0.1211082474226804
0.006000000000000005 0.0175 -0.1075
0.006000000000000005 0.0175 0.12416666666666666
0.006000000000000005 0.0175 0.12028350515463918
0.006000000000000005 0.019500000000000003 -0.1075
0.006000000000000005 0.019500000000000003 0.12416666666666666
0.006000000000000005 0.019500000000000003 0.11945876288659793
0.006000000000000005 0.021500000000000005 -0.1075
0.006000000000000005 0.021500000000000005 0.12416666666666666
0.006000000000000005 0.021500000000000005 0.1186340206185567
0.006000000000000005 0.023500000000000007 -0.1075
0.006000000000000005 0.023500000000000007 0.12416666666666666
0.006000000000000005 0.023500000000000007 0.11780927835051547
0.006000000000000005 0.025499999999999995 -0.1075
0.006000000000000005 0.025499999999999995 0.12416666666666666
0.006000000000000005 0.025499999999999995 0.11698453608247422
0.006000000000000005 0.027499999999999997 -0.1075
0.006000000000000005 0.027499999999999997 0.12416666666666666
0.006000000000000005 0.027499999999999997 0.11615979381443299
0.006000000000000005 0.0295 -0.1075
0.006000000000000005 0.0295 0.12416666666666666
0.006000000000000005 0.0295 0.11533505154639176
0.006000000000000005 0.0315 -0.1075
0.006000000000000005 0.0315 0.12416666666666666
0.006000000000000005 0.0315 0.11451030927835051
0.006000000000000005 0.0335 -0.1075
0.006000000000000005 0.0335 0.12416666666666666
0.006000000000000005 0.0335 0.11368556701030928
0.006000000000000005 0.035500000000000004 -0.1075
0.006000000000000005 0.035500000000000004 0.12416666666666666
0.006000000000000005 0.035500000000000004 0.11286082474226804
0.006000000000000005 0.037500000000000006 -0.1075
0.006000000000000005 0.037500000000000006 0.12416666666666666
0.006000000000000005 0.037500000000000006 0.1120360824742268
0.006000000000000005 0.03949999999999999 -0.1075
0.006000000000000005 0.03949999999999999 0.12416666666666666
0.006000000000000005 0.03949999999999999 0.11121134020618557
0.006000000000000005 0.041499999999999995 -0.1075
0.006000000000000005 0.041499999999999995 0.12416666666666666
0.006000000000000005 0.041499999999999995 0.11038659793814433
0.006000000000000005 0.0435 -0.1075
0.006000000000000005 0.0435 0.12416666666666666
0.006000000000000005 0.0435 0.1095618556701031
0.006000000000000005 0.0455 -0.1075
0.006000000000000005 0.0455 0.12416666666666666
0.006000000000000005 0.0455 0.10873711340206185
0.008 -0.0485 -0.1075
0.008 -0.0485 0.12305555555555556
0.008 -0.0485 0.1075
0.008 -0.0465 -0.1075
0.008 -0.0465 0.12305555555555556
0.008 -0.0465 0.10832474226804124
0.008 -0.0445 -0.1075
0.008 -0.0445 0.12305555555555556
0.008 -0.0445 0.10914948453608248
0.008 -0.0425 -0.1075
0.008 -0.0425 0.12305555555555556
0.008 -0.0425 0.1099742268041237
0.008 -0.0405 -0.1075
0.008 -0.0405 0.12305555555555556
0.008 -0.0405 0.11079896907216495
0.008 -0.0385 -0.1075
0.008 -0.0385 0.12305555555555556
0.008 -0.0385 0.11162371134020618
0.008 -0.036500000000000005 -0.1075
0.008 -0.036500000000000005 0.12305555555555556
0.008 -0.036500000000000005 0.11244845360824741
0.008 -0.0345 -0.1075
0.008 -0.0345 0.12305555555555556
0.008 -0.0345 0.11327319587628866
0.008 -0.0325 -0.1075
0.008 -0.0325 0.12305555555555556
0.008 -0.0325 0.11409793814432989
0.008 -0.0305 -0.1075
0.008 -0.0305 0.12305555555555556
0.008 -0.0305 0.11492268041237114
0.008 -0.0285 -0.1075
0.008 -0.0285 0.12305555555555556
0.008 -0.0285 0.11574742268041237
0.008 -0.026500000000000003 -0.1075
0.008 -0.026500000000000003 0.12305555555555556
0.008 -0.026500000000000003 0.1165721649484536
0.008 -0.0245 -0.1075
0.008 -0.0245 0.12305555555555556
0.008 -0.0245 0.11739690721649484
0.008 -0.0225 -0.1075
0.008 -0.0225 0.12305555555555556
0.008 -0.0225 0.11822164948453609
0.008 -0.0205 -0.1075
0.008 -0.0205 0.12305555555555556
0.008 -0.0205 0.11904639175257732
0.008 -0.018500000000000003 -0.1075
0.008 -0.018500000000000003 0.12305555555555556
0.008 -0.018500000000000003 0.11987113402061855
0.008 -0.0165 -0.1075
0.008 -0.0165 0.12305555555555556
0.008 -0.0165 0.1206958762886598
0.008 -0.014499999999999999 -0.1075
0.008 -0.014499999999999999 0.12305555555555556
0.008 -0.014499999999999999 0.12152061855670103
0.008 -0.012499999999999997 -0.1075
0.008 -0.012499999999999997 0.12305555555555556
0.008 -0.012499999999999997 0.12234536082474226
0.008 -0.010500000000000002 -0.1075
0.008 -0.010500000000000002 0.12305555555555556
0.008 -0.0085 -0.1075
0.008 -0.0085 0.12305555555555556
0.008 -0.006499999999999999 -0.1075
0.008 -0.006499999999999999 0.12305555555555556
0.008 -0.004500000000000004 -0.1075
0.008 -0.004500000000000004 0.12305555555555556
0.008 -0.0025000000000000022 -0.1075
0.008 -0.0025000000000000022 0.12305555555555556
0.008 -0.0005000000000000004 -0.1075
0.008 -0.0005000000000000004 0.12305555555555556
0.008 0.0015000000000000013 -0.1075
0.008 0.0015000000000000013 0.12305555555555556
0.008 0.003500000000000003 -0.1075
0.008 0.003500000000000003 0.12305555555555556
0.008 0.005499999999999998 -0.1075
0.008 0.005499999999999998 0.12305555555555556
0.008 0.0075 -0.1075
0.008 0.0075 0.12305555555555556
0.008 0.009500000000000001 -0.1075
0.008 0.009500000000000001 0.12305555555555556
0.008 0.011499999999999996 -0.1075
0.008 0.011499999999999996 0.12305555555555556
0.008 0.011499999999999996 0.12275773195876288
0.008 0.013499999999999998 -0.1075
0.008 0.013499999999999998 0.12305555555555556
0.008 0.013499999999999998 0.12193298969072165
0.008 0.0155 -0.1075
0.008 0.0155 0.12305555555555556
0.008 0.0155 0.1211082474226804
0.008 0.0175 -0.1075
0.008 0.0175 0.12305555555555556
0.008 0.0175 0.12028350515463918
0.008 0.019500000000000003 -0.1075
0.008 0.019500000000000003 0.12305555555555556
0.008 0.019500000000000003 0.11945876288659793
0.008 0.021500000000000005 -0.1075
0.008 0.021500000000000005 0.12305555555555556
0.008 0.021500000000000005 0.1186340206185567
0.008 0.023500000000000007 -0.1075
0.008 0.023500000000000007 0.12305555555555556
0.008 0.023500000000000007 0.11780927835051547
0.008 0.025499999999999995 -0.1075
0.008 0.025499999999999995 0.12305555555555556
0.008 0.025499999999999995 0.11698453608247422
0.008 0.027499999999999997 -0.1075
0.008 0.027499999999999997 0.12305555555555556
0.008 0.027499999999999997 0.11615979381443299
0.008 0.0295 -0.1075
0.008 0.0295 0.12305555555555556
0.008 0.0295 0.11533505154639176
0.008 0.0315 -0.1075
0.008 0.0315 0.12305555555555556
0.008 0.0315 0.11451030927835051
0.008 0.0335 -0.1075
0.008 0.0335 0.12305555555555556
0.008 0.0335 0.11368556701030928
0.008 0.035500000000000004 -0.1075
0.008 0.035500000000000004 0.12305555555555556
0.008 0.035500000000000004 0.11286082474226804
0.008 0.037500000000000006 -0.1075
0.008 0.037500000000000006 0.12305555555555556
0.008 0.037500000000000006 0.1120360824742268
0.008 0.03949999999999999 -0.1075
0.008 0.03949999999999999 0.12305555555555556
0.008 0.03949999999999999 0.11121134020618557
0.008 0.041499999999999995 -0.1075
0.008 0.041499999999999995 0.12305555555555556
0.008 0.041499999999999995 0.11038659793814433
0.008 0.0435 -0.1075
0.008 0.0435 0.12305555555555556
0.008 0.0435 0.1095618556701031
0.008 0.0455 -0.1075
0.008 0.0455 0.12305555555555556
0.008 0.0455 0.10873711340206185
0.010000000000000002 -0.0485 -0.1075
0.010000000000000002 -0.0485 0.12194444444444444
0.010000000000000002 -0.0485 0.1075
0.010000000000000002 -0.0465 -0.1075
0.010000000000000002 -0.0465 0.12194444444444444
0.010000000000000002 -0.0465 0.10832474226804124
0.010000000000000002 -0.0445 -0.1075
0.010000000000000002 -0.0445 0.12194444444444444
0.010000000000000002 -0.0445 0.10914948453608248
0.010000000000000002 -0.0425 -0.1075
0.010000000000000002 -0.0425 0.12194444444444444
0.010000000000000002 -0.0425 0.1099742268041237
0.010000000000000002 -0.0405 -0.1075
0.010000000000000002 -0.0405 0.12194444444444444
0.010000000000000002 -0.0405 0.11079896907216495
0.010000000000000002 -0.0385 -0.1075
0.010000000000000002 -0.0385 0.12194444444444444
0.010000000000000002 -0.0385 0.11162371134020618
0.010000000000000002 -0.036500000000000005 -0.1075
0.010000000000000002 -0.036500000000000005 0.12194444444444444
0.010000000000000002 -0.036500000000000005 0.11244845360824741
0.010000000000000002 -0.0345 -0.1075
0.010000000000000002 -0.0345 0.12194444444444444
0.010000000000000002 -0.0345 0.11327319587628866
0.010000000000000002 -0.0325 -0.1075
0.010000000000000002 -0.0325 0.12194444444444444
0.010000000000000002 -0.0325 0.11409793814432989
0.010000000000000002 -0.0305 -0.1075
0.010000000000000002 -0.0305 0.12194444444444444
0.010000000000000002 -0.0305 0.11492268041237114
0.010000000000000002 -0.0285 -0.1075
0.010000000000000002 -0.0285 0.12194444444444444
0.010000000000000002 -0.0285 0.11574742268041237
0.010000000000000002 -0.026500000000000003 -0.1075
0.010000000000000002 -0.026500000000000003 0.12194444444444444
0.010000000000000002 -0.026500000000000003 0.1165721649484536
0.010000000000000002 -0.0245 -0.1075
0.010000000000000002 -0.0245 0.12194444444444444
0.010000000000000002 -0.0245 0.11739690721649484
0.010000000000000002 -0.0225 -0.1075
0.010000000000000002 -0.0225 0.12194444444444444
0.010000000000000002 -0.0225 0.11822164948453609
0.010000000000000002 -0.0205 -0.1075
0.010000000000000002 -0.0205 0.12194444444444444
0.010000000000000002 -0.0205 0.11904639175257732
0.010000000000000002 -0.018500000000000003 -0.1075
0.010000000000000002 -0.018500000000000003 0.12194444444444444
0.010000000000000002 -0.018500000000000003 0.11987113402061855
0.010000000000000002 -0.0165 -0.1075
0.010000000000000002 -0.0165 0.12194444444444444
0.010000000000000002 -0.0165 0.1206958762886598
0.010000000000000002 -0.014499999999999999 -0.1075
0.010000000000000002 -0.014499999999999999 0.12194444444444444
0.010000000000000002 -0.014499999999999999 0.12152061855670103
0.010000000000000002 -0.012499999999999997 -0.1075
0.010000000000000002 -0.012499999999999997 0.12194444444444444
0.010000000000000002 -0.010500000000000002 -0.1075
0.010000000000000002 -0.010500000000000002 0.12194444444444444
0.010000000000000002 -0.0085 -0.1075
0.010000000000000002 -0.0085 0.12194444444444444
0.010000000000000002 -0.006499999999999999 -0.1075
0.010000000000000002 -0.006499999999999999 0.12194444444444444
0.010000000000000002 -0.004500000000000004 -0.1075
0.010000000000000002 -0.004500000000000004 0.12194444444444444
0.010000000000000002 -0.0025000000000000022 -0.1075
0.010000000000000002 -0.0025000000000000022 0.12194444444444444
0.010000000000000002 -0.0005000000000000004 -0.1075
0.010000000000000002 -0.0005000000000000004 0.12194444444444444
0.010000000000000002 0.0015000000000000013 -0.1075
0.010000000000000002 0.0015000000000000013 0.12194444444444444
0.010000000000000002 0.003500000000000003 -0.1075
0.010000000000000002 0.003500000000000003 0.12194444444444444
0.010000000000000002 0.005499999999999998 -0.1075
0.010000000000000002 0.005499999999999998 0.12194444444444444
0.010000000000000002 0.0075 -0.1075
0.010000000000000002 0.0075 0.12194444444444444
0.010000000000000002 0.009500000000000001 -0.1075
0.010000000000000002 0.009500000000000001 0.12194444444444444
0.010000000000000002 0.011499999999999996 -0.1075
0.010000000000000002 0.011499999999999996 0.12194444444444444
0.010000000000000002 0.013499999999999998 -0.1075
0.010000000000000002 0.013499999999999998 0.12194444444444444
0.010000000000000002 0.013499999999999998 0.12193298969072165
0.010000000000000002 0.0155 -0.1075
0.010000000000000002 0.0155 0.12194444444444444
0.010000000000000002 0.0155 0.1211082474226804
0.010000000000000002 0.0175 -0.1075
0.010000000000000002 0.0175 0.12194444444444444
0.010000000000000002 0.0175 0.12028350515463918
0.010000000000000002 0.019500000000000003 -0.1075
0.010000000000000002 0.019500000000000003 0.12194444444444444
0.010000000000000002 0.019500000000000003 0.11945876288659793
0.010000000000000002 0.021500000000000005 -0.1075
0.010000000000000002 0.021500000000000005 0.12194444444444444
0.010000000000000002 0.021500000000000005 0.1186340206185567
0.010000000000000002 0.023500000000000007 -0.1075
0.010000000000000002 0.023500000000000007 0.12194444444444444
0.010000000000000002 0.023500000000000007 0.11780927835051547
0.010000000000000002 0.025499999999999995 -0.1075
0.010000000000000002 0.025499999999999995 0.12194444444444444
0.010000000000000002 0.025499999999999995 0.11698453608247422
0.010000000000000002 0.027499999999999997 -0.1075
0.010000000000000002 0.027499999999999997 0.12194444444444444
0.010000000000000002 0.027499999999999997 0.11615979381443299
0.010000000000000002 0.0295 -0.1075
0.010000000000000002 0.0295 0.12194444444444444
0.010000000000000002 0.0295 0.11533505154639176
0.010000000000000002 0.0315 -0.1075
0.010000000000000002 0.0315 0.12194444444444444
0.010000000000000002 0.0315 0.11451030927835051
0.010000000000000002 0.0335 -0.1075
0.010000000000000002 0.0335 0.12194444444444444
0.010000000000000002 0.0335 0.11368556701030928
0.010000000000000002 0.035500000000000004 -0.1075
0.010000000000000002 0.035500000000000004 0.12194444444444444
0.010000000000000002 0.035500000000000004 0.11286082474226804
0.010000000000000002 0.037500000000000006 -0.1075
0.010000000000000002 0.037500000000000006 0.12194444444444444
0.010000000000000002 0.037500000000000006 0.1120360824742268
0.010000000000000002 0.03949999999999999 -0.1075
0.010000000000000002 0.03949999999999999 0.12194444444444444
0.010000000000000002 0.03949999999999999 0.11121134020618557
0.010000000000000002 0.041499999999999995 -0.1075
0.010000000000000002 0.041499999999999995 0.12194444444444444
0.010000000000000002 0.041499999999999995 0.11038659793814433
0.010000000000000002 0.0435 -0.1075
0.010000000000000002 0.0435 0.12194444444444444
0.010000000000000002 0.0435 0.1095618556701031
0.010000000000000002 0.0455 -0.1075
0.010000000000000002 0.0455 0.12194444444444444
0.010000000000000002 0.0455 0.10873711340206185
0.012000000000000004 -0.0485 -0.1075
0.012000000000000004 -0.0485 0.12083333333333333
0.012000000000000004 -0.0485 0.1075
0.012000000000000004 -0.0465 -0.1075
0.012000000000000004 -0.0465 0.12083333333333333
0.012000000000000004 -0.0465 0.10832474226804124
0.012000000000000004 -0.0445 -0.1075
0.012000000000000004 -0.0445 0.12083333333333333
0.012000000000000004 -0.0445 0.10914948453608248
0.012000000000000004 -0.0425 -0.1075
0.012000000000000004 -0.0425 0.12083333333333333
0.012000000000000004 -0.0425 0.1099742268041237
0.012000000000000004 -0.0405 -0.1075
0.012000000000000004 -0.0405 0.12083333333333333
0.012000000000000004 -0.0405 0.11079896907216495
0.012000000000000004 -0.0385 -0.1075
0.012000000000000004 -0.0385 0.12083333333333333
0.012000000000000004 -0.0385 0.11162371134020618
0.012000000000000004 -0.036500000000000005 -0.1075
0.012000000000000004 -0.036500000000000005 0.12083333333333333
0.012000000000000004 -0.036500000000000005 0.11244845360824741
0.012000000000000004 -0.0345 -0.1075
0.012000000000000004 -0.0345 0.12083333333333333
0.012000000000000004 -0.0345 0.11327319587628866
0.012000000000000004 -0.0325 -0.1075
0.012000000000000004 -0.0325 0.12083333333333333
0.012000000000000004 -0.0325 0.11409793814432989
0.012000000000000004 -0.0305 -0.1075
0.012000000000000004 -0.0305 0.12083333333333333
